ply
format ascii 1.0
element vertex 1292
property float x
property float y
property float z
property uchar red
property uchar green
property uchar blue
end_header
-0.331068 -0.029692 -0.110182 0 255 0
0.121159 0.020063 -0.317669 0 255 0
0.144594 0.751920 0.161470 0 255 0
0.114132 -0.931425 0.310417 0 255 0
-0.169037 0.751920 0.088132 0 255 0
-0.048720 -0.141793 0.071045 0 127 127
0.310870 -0.515336 -0.317669 0 255 0
0.093185 -0.943594 -0.317669 0 255 0
0.338891 -0.867306 -0.119845 0 255 0
-0.331068 -0.247878 -0.110801 0 255 0
-0.331068 0.789243 0.238511 0 255 0
0.182947 -0.475972 0.305183 204 51 127
-0.331068 -0.225613 0.254107 0 255 0
0.338891 0.220710 -0.176739 0 255 0
0.041684 -0.943912 0.072927 0 255 0
0.134793 -0.242233 -0.317669 0 255 0
-0.289195 0.407011 -0.042416 0 255 0
0.338891 -0.168057 0.136879 0 255 0
-0.327687 -0.377062 -0.317669 0 255 0
-0.130061 -0.110646 -0.307201 0 255 0
-0.209066 -0.578274 0.024313 0 255 0
0.338891 0.919300 0.155733 0 255 0
-0.331068 0.790864 -0.117132 0 255 0
0.338891 -0.761943 0.141386 0 255 0
-0.286085 0.528850 -0.317669 0 255 0
-0.331068 -0.671277 -0.102173 0 255 0
0.162840 0.830336 -0.317669 0 255 0
-0.129910 0.652912 0.305183 204 51 127
0.231580 0.449304 -0.317669 0 255 0
-0.173734 -0.141796 -0.097547 0 127 127
0.211202 0.295976 0.158643 127 0 127
0.338891 -0.435507 0.173344 0 255 0
-0.053214 -0.578274 0.255553 0 255 0
-0.140863 -0.943912 0.031193 0 255 0
-0.331068 0.643923 0.054895 0 255 0
0.129152 -0.141804 0.001320 0 127 127
0.338891 -0.470971 -0.141517 0 255 0
0.172517 -0.943912 -0.113390 0 255 0
0.017349 0.919410 -0.132287 0 255 0
-0.331068 -0.567770 0.171785 0 255 0
-0.081066 -0.492627 -0.317669 0 255 0
0.033462 0.771379 0.305183 76 0 153
-0.187681 -0.326340 0.305183 204 51 127
-0.331068 0.718190 -0.286108 0 255 0
-0.322675 0.417918 0.308621 76 0 153
-0.305774 -0.943912 0.132011 0 255 0
0.213016 0.505660 0.299949 204 51 127
0.002049 0.751920 -0.252218 0 255 0
0.338891 0.178452 0.234383 0 255 0
0.145089 -0.297658 0.305183 204 51 127
-0.213873 0.296179 -0.182915 127 0 127
0.266962 -0.142266 -0.237986 0 127 127
0.331108 0.835906 0.308438 76 0 153
-0.289195 -0.057049 0.230813 0 255 0
0.338891 0.585335 -0.312025 0 255 0
-0.171953 0.295802 0.020435 127 0 127
0.003345 0.240247 -0.317669 0 255 0
-0.243292 0.244006 0.299949 204 51 127
0.160606 0.751920 -0.014390 0 255 0
-0.148918 0.751920 -0.162172 0 255 0
-0.034352 0.548600 -0.317669 0 255 0
-0.316258 -0.966417 -0.298652 0 127 127
-0.166040 0.919410 0.149552 0 255 0
0.297765 0.068095 -0.119113 0 255 0
0.338891 0.603818 -0.062388 0 255 0
0.038943 0.014531 0.305183 204 51 127
0.180907 0.919410 0.085921 0 255 0
0.338891 0.868339 -0.139010 0 255 0
0.338891 0.289680 0.051933 0 255 0
-0.179696 0.837342 -0.317669 0 255 0
0.001617 -0.222412 0.305183 204 51 127
-0.007314 0.751920 0.107111 0 255 0
-0.178480 -0.489272 0.305183 204 51 127
0.107029 -0.578274 0.207676 0 255 0
-0.331068 0.475225 0.096204 0 255 0
0.338891 -0.809442 -0.276309 0 255 0
0.164803 0.680323 0.305183 204 51 127
-0.172683 -0.943912 -0.132991 0 255 0
-0.064427 -0.801556 0.284247 0 255 0
0.058405 0.409070 -0.307201 0 255 0
0.223379 -0.735989 0.284247 0 255 0
0.338891 -0.248866 -0.146059 0 255 0
-0.166606 0.229909 -0.317669 0 255 0
0.034846 -0.110273 -0.317669 0 255 0
0.302964 0.158020 -0.317669 0 255 0
0.297765 0.643259 0.157675 0 255 0
-0.274666 0.919410 0.301447 76 0 153
0.338891 0.309445 -0.303596 0 255 0
0.021555 -0.578274 -0.240047 0 255 0
-0.289195 0.432381 -0.197413 0 255 0
-0.331068 -0.749982 0.253960 0 255 0
0.240921 -0.173198 0.299949 204 51 127
-0.174842 0.022368 0.299949 204 51 127
0.180946 -0.600751 -0.317669 0 255 0
0.129856 0.751920 -0.169797 0 255 0
-0.077092 0.919410 -0.014306 0 255 0
-0.165653 0.295958 0.171170 127 0 127
-0.196078 -0.757506 -0.317669 0 255 0
0.297765 -0.025663 0.162876 0 255 0
0.338891 -0.668732 0.004883 0 255 0
0.338891 0.511271 0.219820 0 255 0
0.317684 -0.664485 -0.317669 0 255 0
0.318238 0.919410 0.000466 0 255 0
0.107710 0.297693 -0.175677 127 0 127
0.012598 0.917663 0.306043 76 0 153
-0.039059 0.291941 0.299949 204 51 127
0.190233 -0.027310 0.305183 204 51 127
-0.331068 0.211238 0.057517 0 255 0
0.219903 -0.387344 -0.317669 0 255 0
-0.318764 -0.610199 0.308863 76 0 153
-0.187482 -0.578274 0.168753 0 255 0
0.230092 -0.943912 0.226077 0 255 0
0.338891 0.343984 -0.085846 0 255 0
-0.211918 0.013027 -0.317669 0 255 0
-0.204157 -0.844647 0.279013 0 255 0
0.338891 -0.486434 0.000059 0 255 0
0.228657 0.274463 0.305183 204 51 127
-0.252189 -0.254162 -0.307201 0 255 0
0.016264 -0.322174 -0.307201 0 255 0
-0.289195 0.084160 -0.182397 0 255 0
-0.315109 0.919410 -0.171857 0 255 0
-0.014713 -0.854597 -0.317669 0 255 0
-0.331068 -0.803850 -0.059734 0 255 0
0.240166 0.695030 -0.317669 0 255 0
0.194161 -0.144868 0.125198 0 127 127
-0.331068 -0.512554 0.026788 0 255 0
0.065934 0.293891 -0.004303 127 0 127
-0.007012 0.442909 0.305183 204 51 127
0.232542 0.919410 -0.212665 0 255 0
0.173448 -0.144204 -0.135974 0 127 127
-0.331068 0.213351 -0.233977 0 255 0
-0.331068 -0.564876 -0.203448 0 255 0
-0.289195 0.054251 -0.009295 0 255 0
-0.331068 0.784077 0.055900 0 255 0
0.121849 -0.578274 0.021725 0 255 0
0.338891 -0.839803 0.014213 0 255 0
-0.076097 0.751920 0.226381 0 255 0
0.297765 -0.297352 0.149367 0 255 0
0.327442 -0.441297 0.309403 76 0 153
-0.057488 -0.145384 0.206099 0 127 127
-0.226686 0.751920 -0.034029 0 255 0
-0.278727 -0.145216 -0.186308 0 127 127
0.237608 -0.578274 -0.192712 0 255 0
-0.331068 0.164740 0.228882 0 255 0
-0.193512 0.520239 0.299949 204 51 127
-0.263745 0.691626 0.299949 204 51 127
0.257003 0.751920 0.233273 0 255 0
-0.204235 -0.442867 -0.307201 0 255 0
0.297765 0.195876 -0.033194 0 255 0
-0.331068 -0.905848 -0.181058 0 255 0
-0.331068 -0.251383 0.028484 0 255 0
0.002654 -0.578274 -0.069236 0 255 0
0.069775 0.919410 -0.010851 0 255 0
0.338891 -0.577567 0.178503 0 255 0
0.048252 0.192040 0.305183 204 51 127
0.191123 -0.611534 0.308464 76 0 153
0.297765 -0.214121 0.002164 0 255 0
0.305454 0.076874 0.308410 76 0 153
0.101427 0.148444 -0.317669 0 255 0
0.235020 -0.578274 -0.047625 0 255 0
0.338891 -0.888849 0.181906 0 255 0
0.338891 0.395039 0.156070 0 255 0
-0.239406 -0.578274 -0.113727 0 255 0
-0.203875 -0.145205 0.182959 0 127 127
0.232432 -0.047276 -0.317669 0 255 0
0.297765 -0.012965 0.033446 0 255 0
-0.289195 -0.351215 -0.046995 0 255 0
-0.331068 -0.137846 -0.040949 0 255 0
-0.289195 -0.339670 0.198162 0 255 0
0.051635 -0.516435 0.305183 204 51 127
-0.331068 -0.013268 -0.258212 0 255 0
-0.013088 -0.917530 0.310417 0 255 0
-0.229827 0.407157 -0.307201 0 255 0
-0.092335 0.296267 -0.230180 127 0 127
-0.046554 -0.144746 -0.055341 0 127 127
0.338891 0.779219 -0.291927 0 255 0
-0.289195 0.543628 -0.009543 0 255 0
-0.331068 -0.034955 0.072222 0 255 0
0.206280 -0.943912 -0.234855 0 255 0
-0.331068 0.325627 -0.145587 0 255 0
0.056452 -0.943912 0.199644 0 255 0
0.108075 0.919410 -0.220953 0 255 0
-0.289195 -0.337641 -0.186035 0 255 0
0.086479 0.297524 0.164528 127 0 127
-0.162712 0.537732 -0.317669 0 255 0
0.297765 0.729825 -0.068944 0 255 0
0.297765 -0.382306 -0.216246 0 255 0
0.074190 -0.661319 -0.317669 0 255 0
0.242739 0.296555 -0.182739 127 0 127
-0.049230 -0.201567 -0.307201 0 255 0
-0.307344 0.919410 0.184295 0 255 0
-0.289195 0.686949 0.160513 0 255 0
-0.331068 -0.685112 -0.316679 0 255 0
-0.111632 -0.616310 -0.317669 0 255 0
0.297765 0.592813 -0.190950 0 255 0
-0.009395 -0.095383 0.305183 204 51 127
-0.205770 0.919410 -0.004120 0 255 0
0.296862 -0.943912 -0.037900 0 255 0
-0.090655 -0.145896 -0.199785 0 127 127
-0.040128 -0.018206 -0.307201 0 255 0
-0.331068 -0.854263 0.057880 0 255 0
0.338891 -0.755639 0.263322 0 255 0
0.152471 -0.943912 0.029558 0 255 0
0.338891 0.794570 0.158493 0 255 0
0.147356 0.799354 0.289481 76 0 153
0.297765 0.480124 -0.042784 0 255 0
0.087616 -0.943912 -0.199809 0 255 0
0.338891 -0.051239 -0.174967 0 255 0
-0.289195 -0.452424 0.164981 0 255 0
0.096153 0.919410 0.193674 0 255 0
-0.065201 0.919410 0.218762 0 255 0
-0.121320 0.919410 -0.238669 0 255 0
0.097522 -0.823496 -0.317669 0 255 0
0.210509 0.389425 0.299949 204 51 127
0.117288 -0.144947 -0.237738 0 127 127
0.338891 -0.758982 -0.069238 0 255 0
0.057040 -0.826387 0.279013 0 255 0
0.338891 0.613171 0.053496 0 255 0
-0.191714 0.751920 0.219026 0 255 0
-0.331068 0.908941 -0.057794 0 255 0
0.124932 0.503020 -0.317669 0 255 0
-0.190560 -0.943912 0.139281 0 255 0
0.078712 -0.142426 0.116303 0 127 127
-0.238306 -0.866878 -0.317669 0 255 0
0.220704 0.077230 -0.317669 0 255 0
-0.331068 -0.626717 0.015930 0 255 0
-0.060051 -0.943912 -0.235131 0 255 0
0.297765 0.201456 0.112277 0 255 0
-0.331068 0.608781 -0.246918 0 255 0
0.338891 0.290958 0.203087 0 255 0
0.215338 0.919410 0.194801 0 255 0
-0.331068 0.700032 -0.048176 0 255 0
-0.245353 0.295142 -0.066810 127 0 127
0.226903 0.565002 -0.307201 0 255 0
0.196346 -0.846512 0.279013 0 255 0
-0.066463 0.555235 0.299949 204 51 127
-0.331068 0.043868 0.264165 0 255 0
-0.041787 0.670478 -0.317669 0 255 0
-0.331068 0.817630 -0.231849 0 255 0
0.338891 -0.209015 0.253489 0 255 0
-0.317138 -0.497503 -0.317669 0 255 0
0.338891 0.112490 -0.214522 0 255 0
-0.302519 -0.328082 0.309641 76 0 153
0.297765 0.388504 -0.234394 0 255 0
-0.331068 -0.241144 -0.225858 0 255 0
0.297765 0.090119 0.178338 0 255 0
0.212115 -0.868185 -0.317669 0 255 0
-0.289195 0.691394 -0.183589 0 255 0
-0.331068 -0.847193 0.198234 0 255 0
-0.080906 -0.692677 0.304892 0 255 0
-0.227140 0.751920 -0.262016 0 255 0
-0.231616 -0.221949 0.305183 204 51 127
-0.162303 -0.145486 0.013662 0 127 127
-0.222744 0.123175 0.305183 204 51 127
0.231068 -0.375137 0.305183 204 51 127
-0.331068 -0.202687 0.139075 0 255 0
-0.220904 0.132393 -0.317669 0 255 0
-0.065146 -0.943912 0.121751 0 255 0
-0.319932 -0.130018 0.309337 76 0 153
-0.289195 0.364989 0.061383 0 255 0
0.338891 0.474231 -0.305920 0 255 0
0.336827 -0.403624 -0.317669 0 255 0
-0.227829 -0.943912 -0.228871 0 255 0
0.244964 -0.234841 -0.317669 0 255 0
-0.097120 -0.578274 0.012776 0 255 0
0.096585 0.738010 -0.307201 0 255 0
-0.331068 0.480054 0.217788 0 255 0
0.149084 0.294256 0.067970 127 0 127
0.247993 0.751920 0.114114 0 255 0
0.093331 -0.412229 0.299949 204 51 127
0.338891 -0.161735 -0.317419 0 255 0
-0.145579 -0.596156 0.310306 76 0 153
-0.102585 -0.258565 0.305183 204 51 127
0.338891 -0.935411 -0.204311 0 255 0
-0.253874 -0.943912 0.226820 0 255 0
-0.331068 0.480702 -0.109230 0 255 0
0.025240 0.069449 -0.317669 0 255 0
-0.023035 0.666351 0.299949 204 51 127
-0.046224 -0.943912 -0.028087 0 255 0
0.297765 -0.113002 0.225913 0 255 0
0.297765 -0.382340 0.080495 0 255 0
-0.325630 0.314672 0.279013 0 255 0
-0.231399 0.919410 -0.260751 0 255 0
0.063920 -0.943912 -0.032054 0 255 0
-0.249899 0.815732 0.305183 76 0 153
-0.120329 0.751920 -0.027747 0 255 0
0.170679 -0.943912 0.134060 0 255 0
-0.039635 0.297039 -0.002541 127 0 127
-0.117600 -0.828021 -0.317669 0 255 0
-0.073175 -0.483184 0.305183 204 51 127
0.228201 -0.578274 0.185725 0 255 0
0.225487 0.914555 -0.317669 0 255 0
-0.072794 -0.001631 0.305183 204 51 127
-0.132091 0.243701 0.305183 204 51 127
-0.249465 -0.943912 0.030038 0 255 0
0.114909 -0.357185 -0.307201 0 255 0
0.302730 0.923597 0.259215 0 0 255
-0.081625 0.801464 -0.317669 0 255 0
-0.131582 0.297814 -0.098505 127 0 127
-0.331068 -0.705174 -0.204330 0 255 0
0.083983 0.751920 0.057239 0 255 0
-0.176864 -0.939677 0.310286 0 255 0
-0.245585 0.623950 -0.307201 0 255 0
0.138656 -0.189808 0.299949 204 51 127
0.158853 0.375844 -0.317669 0 255 0
0.338891 -0.774305 -0.171427 0 255 0
0.037769 0.823410 -0.317669 0 255 0
-0.040769 0.751920 -0.156173 0 255 0
0.044887 -0.619601 0.279013 0 255 0
-0.331068 0.438658 -0.295628 0 255 0
0.114801 0.453789 0.305183 204 51 127
-0.303071 0.524163 0.309758 76 0 153
-0.317322 0.206244 0.360558 153 0 76
0.338891 -0.570511 -0.207899 0 255 0
0.297765 -0.112235 0.058536 0 255 0
-0.331068 -0.441526 -0.233263 0 255 0
0.338891 -0.566392 -0.101563 0 255 0
0.046774 0.751920 0.206029 0 255 0
0.338891 0.410424 0.021323 0 255 0
0.297765 -0.522164 0.255032 0 255 0
-0.152171 -0.217033 -0.307201 0 255 0
-0.331068 -0.676931 0.171992 0 255 0
0.003100 -0.423043 -0.307201 0 255 0
-0.224857 -0.145218 -0.296732 0 127 127
0.191838 -0.148456 -0.317669 0 255 0
-0.331068 0.569508 0.132400 0 255 0
0.318761 0.550187 0.310399 76 0 153
-0.331068 0.314206 -0.018113 0 255 0
-0.331068 -0.574977 -0.072971 0 255 0
-0.098432 -0.578274 0.122713 0 255 0
0.192706 0.751920 -0.250249 0 255 0
-0.238553 0.296482 -0.296732 127 0 127
-0.182830 0.919410 0.248144 0 255 0
-0.157236 -0.578274 -0.237260 0 255 0
0.338891 -0.675952 0.196171 0 255 0
-0.331068 -0.099019 0.150419 0 255 0
0.215111 -0.491044 -0.307201 0 255 0
0.130209 -0.578274 -0.235582 0 255 0
0.297765 -0.339552 -0.098448 0 255 0
0.330749 0.243245 0.308546 76 0 153
0.297765 -0.486385 0.089823 0 255 0
0.079241 0.296122 -0.288609 127 0 127
0.013466 -0.578274 0.177687 0 255 0
-0.317765 0.002860 0.354551 153 0 76
0.322784 -0.960855 0.253258 76 153 0
0.210264 0.751920 -0.107155 0 255 0
0.338891 0.823208 -0.052130 0 255 0
0.125390 0.252029 0.299949 204 51 127
-0.331068 -0.806506 -0.163862 0 255 0
-0.020623 0.839446 0.258077 0 255 0
0.297765 -0.152425 -0.146128 0 255 0
0.121815 0.918641 -0.317669 0 255 0
0.151179 0.584186 0.299949 204 51 127
-0.016243 0.340120 -0.307201 0 255 0
-0.289195 0.170596 0.141430 0 255 0
-0.113325 -0.395241 0.299949 204 51 127
0.338891 -0.574049 0.050246 0 255 0
-0.289195 0.150792 -0.012939 0 255 0
-0.276107 -0.518492 0.299949 204 51 127
0.297765 -0.354105 0.230758 0 255 0
0.131934 0.057183 0.305183 204 51 127
0.271131 -0.943912 -0.136389 0 255 0
0.048299 -0.314159 0.299949 204 51 127
0.338891 -0.002243 -0.052570 0 255 0
0.200325 0.170864 -0.317669 0 255 0
0.016430 0.295481 -0.204546 127 0 127
0.338891 0.842586 0.072169 0 255 0
-0.256003 0.295764 0.216204 127 0 127
0.225743 -0.143256 -0.016247 0 127 127
-0.067335 0.295331 0.208840 127 0 127
-0.232913 -0.077195 0.305183 204 51 127
0.239515 0.620210 0.299949 204 51 127
-0.289195 0.414546 0.156714 0 255 0
-0.237396 0.339489 0.305183 204 51 127
-0.084882 0.919410 0.087740 0 255 0
0.089520 -0.142924 -0.085190 0 127 127
0.028101 0.316089 0.237141 127 0 127
0.338891 0.860039 -0.233607 0 255 0
0.034406 -0.145719 0.005836 0 127 127
0.222494 0.849128 0.258077 0 255 0
-0.272495 0.820202 -0.317669 0 255 0
-0.234650 -0.354212 -0.317669 0 255 0
-0.289195 -0.001635 0.154536 0 255 0
-0.149735 -0.578274 -0.065455 0 255 0
-0.331068 -0.421163 0.000651 0 255 0
0.243011 0.297049 0.068662 127 0 127
-0.331068 0.100751 -0.094005 0 255 0
-0.289195 -0.049719 -0.010385 0 255 0
0.203292 -0.138614 0.221483 0 127 127
0.254410 0.811770 -0.317669 0 255 0
0.242133 0.333567 -0.317669 0 255 0
0.105951 -0.068801 0.305183 204 51 127
0.297765 -0.416441 -0.045795 0 255 0
0.118752 0.293758 -0.083276 127 0 127
-0.289195 0.530197 -0.219734 0 255 0
-0.030427 0.919410 -0.218747 0 255 0
-0.291742 0.204070 -0.317669 0 255 0
-0.243836 -0.407741 0.299949 204 51 127
-0.140607 -0.143395 0.103942 0 127 127
-0.233695 0.603519 0.305183 204 51 127
-0.249149 0.294796 0.121591 127 0 127
-0.331068 0.840715 0.129148 0 255 0
0.338891 0.748208 0.275941 0 255 0
0.326812 -0.070181 -0.317669 0 255 0
-0.289195 -0.290800 0.100733 0 255 0
0.338891 -0.269717 0.063281 0 255 0
0.263545 0.177052 0.299949 204 51 127
-0.135124 0.751920 -0.256427 0 255 0
0.166766 0.323617 0.234450 127 0 127
0.297765 0.075331 -0.024781 0 255 0
-0.231823 0.432454 0.305183 204 51 127
-0.138532 0.751920 0.293911 76 0 153
0.338891 -0.476591 -0.232993 0 255 0
0.233771 -0.276750 0.299949 204 51 127
0.085205 0.751920 -0.068922 0 255 0
-0.200450 -0.666554 -0.317669 0 255 0
0.338891 -0.212326 -0.241767 0 255 0
-0.289179 -0.148144 0.225639 0 127 127
-0.289195 0.324946 -0.226848 0 255 0
0.143252 -0.578274 0.124629 0 255 0
-0.084072 -0.398792 -0.307201 0 255 0
0.338891 0.652629 -0.251692 0 255 0
0.338891 0.309645 -0.213296 0 255 0
0.050696 -0.198501 -0.307201 0 255 0
-0.224400 -0.943912 -0.056659 0 255 0
0.297765 0.236966 -0.269186 0 255 0
-0.086730 0.919410 -0.105289 0 255 0
-0.330272 0.630024 0.289481 76 0 153
-0.032594 0.158600 -0.307201 0 255 0
0.076161 -0.553828 -0.317669 0 255 0
0.135081 -0.781141 0.284247 0 255 0
0.338891 0.250053 -0.091690 0 255 0
0.297765 0.016891 0.242241 0 255 0
-0.267814 -0.778647 0.310417 0 255 0
0.338891 0.522174 -0.230412 0 255 0
0.090072 0.866210 0.305183 76 0 153
-0.066831 -0.165122 0.299949 204 51 127
0.140158 -0.066655 -0.307201 0 255 0
0.338891 0.773885 -0.134889 0 255 0
0.314782 0.461079 0.310270 76 0 153
0.261454 -0.930482 0.310417 0 255 0
-0.113764 -0.876779 0.310417 0 255 0
0.297765 0.540067 -0.119164 0 255 0
-0.289195 -0.523734 0.106694 0 255 0
0.048957 0.102749 0.299949 204 51 127
0.338891 -0.178863 -0.071918 0 255 0
0.338891 0.668047 -0.123613 0 255 0
-0.027878 0.460178 -0.317669 0 255 0
0.338891 -0.639038 0.114634 0 255 0
0.218030 0.919410 0.005512 0 255 0
0.338891 -0.697887 -0.227908 0 255 0
-0.152980 0.320271 -0.307201 0 255 0
-0.074218 0.751920 0.049220 0 255 0
0.297765 0.157418 -0.130730 0 255 0
-0.147081 -0.771572 0.279013 0 255 0
0.290990 0.301046 -0.020993 127 0 127
0.261461 0.319382 0.237098 127 0 127
0.026896 0.616753 -0.307201 0 255 0
-0.331068 -0.725041 -0.021382 0 255 0
-0.331068 0.850754 0.300929 76 0 153
-0.014258 -0.559290 -0.317669 0 255 0
0.338891 0.561326 0.124010 0 255 0
0.338891 -0.844364 0.106589 0 255 0
0.267153 -0.578274 -0.275024 0 255 0
-0.124982 0.002750 -0.307201 0 255 0
-0.065809 -0.578274 -0.239641 0 255 0
-0.032132 -0.941981 -0.317669 0 255 0
-0.105172 0.886339 -0.317669 0 255 0
-0.247104 -0.578274 -0.231194 0 255 0
0.058143 -0.150171 0.299949 204 51 127
0.319965 -0.883728 -0.317669 0 255 0
-0.176016 -0.143182 -0.215500 0 127 127
-0.245246 -0.143717 -0.029165 0 127 127
0.338891 0.711236 0.123009 0 255 0
-0.242191 -0.578274 0.235926 0 255 0
0.100342 0.919410 -0.108192 0 255 0
-0.011229 -0.578274 -0.160092 0 255 0
-0.255247 0.751920 0.084595 0 255 0
-0.331068 0.465566 0.010532 0 255 0
-0.323012 -0.882748 -0.317669 0 255 0
0.338891 0.854193 0.220511 0 255 0
-0.273401 -0.943912 -0.129830 0 255 0
-0.255654 0.919410 -0.109778 0 255 0
0.338891 0.023361 0.105568 0 255 0
-0.331068 -0.488738 0.234707 0 255 0
0.095146 0.919410 0.071111 0 255 0
-0.268393 -0.073522 -0.317669 0 255 0
0.338891 0.538763 0.004272 0 255 0
0.338891 0.615299 0.227442 0 255 0
-0.157902 -0.530321 -0.317669 0 255 0
-0.289195 0.240379 -0.155905 0 255 0
0.079488 0.673945 0.305183 204 51 127
0.042919 0.751920 -0.177071 0 255 0
-0.331068 0.385595 0.225124 0 255 0
0.297765 0.662156 -0.002874 0 255 0
-0.218660 0.919410 0.080124 0 255 0
0.242775 0.751920 0.008126 0 255 0
-0.331068 -0.222622 -0.313042 0 255 0
0.283905 0.919410 -0.098849 0 255 0
-0.284906 -0.692677 0.296205 0 255 0
-0.331068 0.615313 -0.043667 0 255 0
-0.109876 0.297384 0.099362 127 0 127
-0.237442 0.751920 -0.154883 0 255 0
0.135394 -0.674619 0.279013 0 255 0
-0.105978 0.609937 -0.307201 0 255 0
0.262719 -0.646616 0.279013 0 255 0
-0.010996 -0.734971 0.284247 0 255 0
-0.106152 0.751920 0.144234 0 255 0
-0.289195 -0.490577 -0.054091 0 255 0
-0.331068 -0.591413 -0.294346 0 255 0
0.297765 0.309784 0.131072 0 255 0
0.210682 -0.943912 -0.038591 0 255 0
-0.331068 -0.621335 0.099568 0 255 0
0.297765 0.020385 -0.188916 0 255 0
-0.082472 0.912874 0.308065 76 0 153
0.042754 0.517726 -0.307201 0 255 0
-0.086108 0.264191 -0.307201 0 255 0
0.187558 -0.311032 -0.307201 0 255 0
-0.331068 0.840278 -0.010274 0 255 0
-0.331068 -0.877523 -0.098990 0 255 0
-0.141548 -0.943912 -0.217944 0 255 0
0.297765 0.413591 -0.105833 0 255 0
0.214770 0.053084 0.299949 204 51 127
-0.139172 -0.943912 -0.057007 0 255 0
0.117284 -0.578274 0.290415 76 0 153
-0.110378 0.473350 0.299949 204 51 127
-0.331068 -0.091428 -0.230663 0 255 0
-0.331068 0.247591 0.227095 0 255 0
-0.331068 -0.115843 -0.129222 0 255 0
-0.289195 0.080290 0.193910 0 255 0
-0.018338 -0.142240 -0.238940 0 127 127
0.135021 -0.943912 0.224076 0 255 0
-0.256394 0.012456 0.299949 204 51 127
-0.053421 0.756864 0.305183 76 0 153
0.272592 0.919410 0.068703 0 255 0
-0.331068 -0.314029 -0.263632 0 255 0
0.021042 -0.120516 0.226672 0 127 127
0.325153 0.702551 -0.317669 0 255 0
-0.003730 0.919410 0.038578 0 255 0
0.297765 0.477993 0.157244 0 255 0
0.273221 -0.783495 -0.317669 0 255 0
0.185944 -0.112859 0.305183 204 51 127
0.336308 0.389882 -0.317669 0 255 0
0.274473 -0.815605 0.279013 0 255 0
-0.289195 0.036104 0.070263 0 255 0
-0.331068 0.230290 -0.021828 0 255 0
-0.113847 0.167325 -0.307201 0 255 0
0.338891 -0.761872 0.038052 0 255 0
0.235390 -0.661204 -0.317669 0 255 0
-0.006503 0.919410 -0.054098 0 255 0
-0.331068 0.131769 -0.232759 0 255 0
0.297765 0.421396 0.236738 0 255 0
0.297765 -0.302920 -0.201755 0 255 0
-0.331068 -0.785819 0.140560 0 255 0
0.238137 -0.542730 0.305183 204 51 127
-0.224263 -0.613251 0.307915 76 0 153
0.242868 0.718750 0.305183 204 51 127
-0.331068 0.760496 0.134009 0 255 0
0.018182 0.919410 0.212939 0 255 0
-0.331068 -0.933998 0.049281 0 255 0
0.246722 0.296186 -0.101464 127 0 127
0.042930 -0.578274 0.007830 0 255 0
0.063363 -0.034345 -0.307201 0 255 0
0.308182 -0.130761 0.309186 76 0 153
0.308283 0.072404 -0.317669 0 255 0
0.297765 -0.492318 -0.070541 0 255 0
-0.289195 0.139796 0.066102 0 255 0
-0.113559 0.322216 0.305183 204 51 127
-0.289195 0.278842 0.051404 0 255 0
0.297765 -0.509364 0.174450 0 255 0
0.172963 0.297185 -0.234091 127 0 127
0.045855 -0.762866 -0.317669 0 255 0
-0.289195 -0.023478 -0.191510 0 255 0
-0.042745 0.371196 0.299949 204 51 127
-0.127351 -0.697152 -0.317669 0 255 0
-0.289195 0.715388 0.017311 0 255 0
0.257127 -0.070906 0.299949 204 51 127
-0.331068 -0.410397 -0.078768 0 255 0
0.297765 0.406506 0.088697 0 255 0
0.338891 0.698976 0.201039 0 255 0
0.338891 -0.277381 -0.072323 0 255 0
0.046332 0.280707 0.305183 204 51 127
0.003439 -0.145880 0.139418 0 127 127
0.338891 -0.937824 0.055117 0 255 0
0.071228 -0.578274 -0.179074 0 255 0
-0.289195 0.548399 0.069351 0 255 0
0.338891 -0.089722 0.130898 0 255 0
-0.331068 -0.280948 0.167066 0 255 0
-0.150409 0.153242 0.299949 204 51 127
-0.308867 0.764234 0.310349 76 0 153
0.154265 -0.674465 -0.317669 0 255 0
-0.331068 -0.922503 0.219885 0 255 0
0.015214 0.751920 0.016344 0 255 0
-0.132932 -0.146993 0.226672 0 127 127
-0.331068 0.701450 0.257698 0 255 0
-0.035968 -0.635971 -0.317669 0 255 0
0.073546 -0.943912 -0.109595 0 255 0
0.338891 0.185257 0.032329 0 255 0
0.170831 -0.935666 -0.317669 0 255 0
-0.132998 -0.052880 0.305183 204 51 127
-0.043167 0.212929 0.299949 204 51 127
0.017879 -0.943912 -0.236963 0 255 0
-0.331068 -0.520814 -0.131758 0 255 0
-0.331068 -0.336667 -0.120491 0 255 0
0.338891 -0.393179 -0.136848 0 255 0
0.338891 -0.587130 -0.026343 0 255 0
-0.289195 -0.441838 0.088085 0 255 0
-0.254351 -0.943113 0.307927 0 255 0
0.179517 0.751920 0.077751 0 255 0
0.338891 -0.857411 -0.196568 0 255 0
-0.316900 -0.829483 0.279013 0 255 0
0.097749 0.226894 -0.317669 0 255 0
-0.331068 0.245764 0.144654 0 255 0
0.338891 -0.047094 0.228975 0 255 0
0.268062 0.751920 -0.266460 0 255 0
-0.266896 0.751920 0.202187 0 255 0
-0.071726 -0.329157 0.305183 204 51 127
-0.089860 -0.145884 -0.119015 0 127 127
0.338891 -0.412644 0.022919 0 255 0
-0.331068 -0.104251 0.038953 0 255 0
-0.258562 0.709416 -0.317669 0 255 0
0.297765 -0.224770 0.190661 0 255 0
-0.101725 0.480845 -0.317669 0 255 0
-0.289195 0.512722 0.162517 0 255 0
0.275024 -0.943912 0.164012 0 255 0
-0.232402 -0.578274 0.106683 0 255 0
-0.331068 -0.406289 0.235660 0 255 0
0.236255 -0.144216 -0.092195 0 127 127
-0.289195 0.155839 -0.155516 0 255 0
-0.289195 0.037838 -0.106184 0 255 0
-0.126524 -0.578274 0.214887 0 255 0
0.297765 0.228394 0.183794 0 255 0
-0.051522 -0.093759 -0.307201 0 255 0
-0.019642 -0.943912 0.193013 0 255 0
0.259384 0.801677 0.305183 76 0 153
-0.303297 0.028829 -0.317669 0 255 0
-0.289195 -0.275118 -0.048807 0 255 0
-0.331068 0.664575 -0.117262 0 255 0
0.148489 -0.526160 -0.317669 0 255 0
0.034005 0.297422 0.066547 127 0 127
-0.310131 0.114252 0.283676 76 0 153
-0.331068 0.636604 -0.317586 0 255 0
-0.105154 0.072577 0.299949 204 51 127
0.048624 0.919410 -0.270780 0 255 0
0.033323 0.295196 -0.077890 127 0 127
0.338891 -0.133190 -0.007658 0 255 0
0.338891 -0.734784 -0.293975 0 255 0
0.297765 -0.372708 0.156078 0 255 0
-0.097947 0.723826 -0.317669 0 255 0
0.297765 0.360770 -0.159839 0 255 0
0.116169 0.751920 0.235875 0 255 0
-0.261088 -0.713468 -0.317669 0 255 0
-0.018158 0.068689 0.305183 204 51 127
-0.226106 0.484368 -0.307201 0 255 0
-0.289195 -0.181595 -0.265803 0 255 0
-0.331068 -0.622397 0.223867 0 255 0
0.338891 -0.591729 -0.293034 0 255 0
0.297765 -0.042066 -0.109387 0 255 0
-0.272205 -0.578274 -0.026414 0 255 0
0.075257 0.751920 0.132656 0 255 0
0.123161 -0.850500 0.310417 0 255 0
0.252816 -0.447100 0.305183 204 51 127
-0.289195 -0.190877 0.014131 0 255 0
0.144559 0.919410 -0.022773 0 255 0
-0.232788 0.919410 -0.185798 0 255 0
-0.331068 -0.037939 0.289949 76 0 153
0.338891 -0.663355 -0.075025 0 255 0
0.283891 0.919410 -0.266869 0 255 0
-0.247788 -0.145881 -0.105959 0 127 127
0.263957 -0.145099 0.151478 0 127 127
0.065172 -0.578274 0.098561 0 255 0
0.338891 0.773306 -0.217591 0 255 0
-0.080296 -0.943912 -0.162905 0 255 0
0.192753 -0.145888 -0.240537 0 127 127
0.338891 -0.293024 0.220773 0 255 0
-0.087753 0.751920 -0.094528 0 255 0
0.338891 -0.805208 0.201792 0 255 0
0.024157 0.707116 -0.307201 0 255 0
-0.246595 -0.943912 -0.310230 0 255 0
0.338891 0.144010 0.148406 0 255 0
0.198984 -0.578274 0.017103 0 255 0
-0.331068 0.401328 -0.144827 0 255 0
-0.294272 0.191510 0.289481 76 0 153
0.331533 -0.692890 0.306623 0 255 0
0.335167 0.160499 0.306963 76 0 153
-0.024515 -0.644805 0.279013 0 255 0
-0.049314 -0.943912 0.045579 0 255 0
0.171897 0.919410 -0.150506 0 255 0
-0.331068 0.753742 -0.195373 0 255 0
0.297765 -0.224639 0.114168 0 255 0
0.201562 -0.578274 -0.113092 0 255 0
0.170562 0.919410 -0.259631 0 255 0
0.235387 0.751920 -0.188694 0 255 0
0.338173 -0.943912 -0.106346 0 255 0
-0.289195 -0.349842 0.026828 0 255 0
0.297765 -0.075980 -0.241765 0 255 0
0.247253 0.260566 -0.317669 0 255 0
0.122619 -0.744424 -0.317669 0 255 0
0.183017 0.297548 -0.140871 127 0 127
0.173743 0.725141 -0.317669 0 255 0
0.232140 -0.144034 0.058266 0 127 127
0.101408 0.527585 0.305183 204 51 127
-0.110299 0.293954 -0.020252 127 0 127
-0.136869 0.321983 0.236200 127 0 127
0.075916 -0.226711 0.299949 204 51 127
-0.150394 0.919410 0.043117 0 255 0
-0.157718 0.432896 -0.317669 0 255 0
-0.173620 0.758580 -0.317669 0 255 0
0.300933 0.919410 -0.188205 0 255 0
0.338891 0.123017 -0.060950 0 255 0
0.297765 0.170105 -0.240922 0 255 0
0.264354 -0.163698 -0.307201 0 255 0
0.090540 0.751920 -0.231705 0 255 0
-0.331068 0.387842 -0.236340 0 255 0
0.297765 -0.350424 -0.287810 0 255 0
-0.289195 -0.089964 -0.076130 0 255 0
0.158857 -0.370110 0.305183 204 51 127
0.189814 -0.920381 0.310417 0 255 0
-0.162270 0.065613 -0.317669 0 255 0
0.297765 -0.431688 0.232611 0 255 0
0.297765 -0.512191 -0.184246 0 255 0
-0.264613 -0.868500 0.310417 0 255 0
-0.162637 0.585473 0.299949 204 51 127
-0.193116 0.812594 0.258077 0 255 0
0.297765 0.561356 0.188078 0 255 0
-0.331068 0.867069 0.227920 0 255 0
0.338891 0.087817 0.237435 0 255 0
-0.218344 0.751324 0.299949 204 51 127
-0.289195 -0.499643 -0.226926 0 255 0
-0.232577 0.919410 0.196431 0 255 0
0.032662 0.382479 0.305183 204 51 127
0.297765 0.672623 0.078735 0 255 0
-0.331068 -0.637680 -0.228351 0 255 0
-0.003028 -0.469674 0.299949 204 51 127
-0.280148 -0.149082 0.152098 0 127 127
0.023625 -0.491415 -0.307201 0 255 0
0.159346 -0.145189 -0.066101 0 127 127
-0.167406 0.919410 -0.307298 0 255 0
-0.050917 -0.298496 -0.307201 0 255 0
-0.331068 -0.306938 0.247916 0 255 0
0.270715 0.879653 0.305183 76 0 153
-0.090562 -0.943789 0.306123 0 255 0
0.338690 -0.943912 0.125869 0 255 0
-0.331068 -0.742221 -0.104491 0 255 0
-0.289195 -0.262160 -0.166286 0 255 0
-0.289195 0.721637 -0.112546 0 255 0
-0.331068 -0.872045 -0.243372 0 255 0
0.056116 -0.900225 0.284247 0 255 0
0.269763 0.919410 0.140327 0 255 0
0.168889 0.322816 0.305183 204 51 127
0.074298 -0.281751 -0.307201 0 255 0
-0.289195 0.349605 -0.093988 0 255 0
0.136448 -0.578274 -0.047374 0 255 0
0.338891 -0.833504 -0.056045 0 255 0
-0.305114 0.275633 0.361371 153 0 76
0.243233 -0.943912 -0.306338 0 255 0
0.098701 -0.147032 -0.307201 0 127 127
-0.144529 0.294942 -0.167618 127 0 127
-0.331068 -0.180657 0.069702 0 255 0
-0.331068 -0.396870 -0.178998 0 255 0
0.277403 0.635453 -0.317669 0 255 0
0.139992 0.090657 -0.307201 0 255 0
-0.331068 0.282803 -0.089891 0 255 0
0.338891 0.247906 -0.004430 0 255 0
-0.299304 0.919410 -0.240172 0 255 0
0.181793 0.653771 -0.307201 0 255 0
-0.289195 0.041133 -0.244006 0 255 0
0.338891 -0.058358 -0.000642 0 255 0
-0.331068 0.255909 -0.291604 0 255 0
-0.289195 0.608915 -0.187157 0 255 0
0.338891 -0.175315 0.067242 0 255 0
-0.251131 -0.144730 0.305183 204 51 127
0.338891 -0.533857 0.120601 0 255 0
-0.174633 -0.943912 0.218749 0 255 0
0.297765 0.404684 -0.034943 0 255 0
0.338891 0.027070 0.183204 0 255 0
0.253131 0.295251 -0.257294 127 0 127
-0.291031 -0.789941 -0.317669 0 255 0
-0.154902 -0.198657 0.305183 204 51 127
-0.289195 -0.376439 -0.244024 0 255 0
0.140433 0.876669 0.258077 0 255 0
-0.207773 0.751920 0.151196 0 255 0
0.293500 -0.234234 0.299949 204 51 127
0.297765 0.271401 -0.143686 0 255 0
0.158379 0.571556 -0.317669 0 255 0
0.312498 0.312237 0.309986 76 0 153
-0.331068 -0.180270 -0.155315 0 255 0
-0.188698 -0.288243 -0.317669 0 255 0
-0.016311 -0.537821 0.299949 204 51 127
-0.080988 -0.578274 -0.055873 0 255 0
0.338891 -0.096917 -0.119327 0 255 0
-0.289195 0.617563 0.105298 0 255 0
-0.122250 -0.145870 -0.051438 0 127 127
-0.012603 -0.847079 0.279013 0 255 0
-0.233611 -0.521509 -0.317669 0 255 0
-0.331068 0.087862 0.048133 0 255 0
-0.289195 0.565305 -0.075104 0 255 0
-0.331068 -0.397564 0.162816 0 255 0
0.138051 -0.143121 0.069771 0 127 127
-0.262334 -0.578274 0.169948 0 255 0
-0.059090 -0.791508 -0.317669 0 255 0
-0.011150 0.751920 0.249501 0 255 0
-0.199164 0.667503 0.299949 204 51 127
0.049839 -0.878733 -0.317669 0 255 0
-0.289195 0.436342 0.250718 0 255 0
-0.216845 0.882367 0.307104 76 0 153
-0.289195 0.491056 -0.054015 0 255 0
-0.025879 -0.578274 0.006460 0 255 0
-0.097967 0.808807 0.258077 0 255 0
0.272248 -0.578274 -0.113146 0 255 0
-0.163663 0.751920 -0.081002 0 255 0
0.160465 0.443653 -0.307201 0 255 0
-0.066563 0.751920 -0.259500 0 255 0
0.297765 0.550125 -0.049430 0 255 0
0.279028 0.505448 -0.317669 0 255 0
0.098342 0.749394 0.305183 204 51 127
0.110971 -0.482265 0.305183 204 51 127
-0.137115 -0.450979 -0.317669 0 255 0
-0.033896 0.751920 0.170145 0 255 0
0.047437 -0.145104 -0.257189 0 127 127
0.255717 0.018596 -0.317669 0 255 0
-0.289539 -0.310691 -0.317669 0 255 0
0.272354 -0.943912 -0.217888 0 255 0
-0.331068 0.841891 -0.168118 0 255 0
-0.005121 0.294298 0.181075 127 0 127
0.338891 0.369737 0.220254 0 255 0
-0.289195 -0.437858 -0.286721 0 255 0
-0.331068 0.407603 0.103187 0 255 0
-0.168654 -0.055732 -0.317669 0 255 0
0.338891 0.018549 0.299482 76 0 153
-0.080041 -0.141782 0.134224 0 127 127
-0.181950 0.751920 0.016811 0 255 0
-0.289195 0.497474 -0.160481 0 255 0
-0.131561 -0.943912 0.106200 0 255 0
0.198562 -0.578274 -0.247908 0 255 0
-0.289195 0.691029 0.080331 0 255 0
0.338891 -0.689724 0.069039 0 255 0
-0.245551 -0.287739 0.299949 204 51 127
-0.331068 0.023762 -0.167935 0 255 0
0.016254 0.505855 0.299949 204 51 127
-0.331068 0.777375 -0.034036 0 255 0
0.338891 -0.145425 -0.248304 0 255 0
-0.289195 -0.240901 0.201089 0 255 0
-0.331068 0.010368 -0.056299 0 255 0
0.338891 0.602011 -0.135710 0 255 0
0.189988 0.751920 0.229372 0 255 0
-0.331068 -0.852278 0.131300 0 255 0
0.338891 -0.270739 -0.003747 0 255 0
0.297633 -0.380719 0.299949 204 51 127
-0.301688 -0.249303 0.309466 76 0 153
-0.090880 -0.909373 -0.317669 0 255 0
-0.192097 0.919410 -0.069650 0 255 0
-0.029130 0.746230 -0.317669 0 255 0
0.290061 -0.451744 -0.317669 0 255 0
-0.286859 0.919410 -0.004685 0 255 0
0.007214 -0.248102 -0.317669 0 255 0
0.297765 -0.320279 0.041101 0 255 0
0.269697 0.394414 -0.317669 0 255 0
0.022819 -0.143351 -0.084330 0 127 127
-0.178927 0.307387 0.305183 204 51 127
-0.331068 0.844920 -0.297581 0 255 0
-0.331068 -0.200518 -0.063906 0 255 0
-0.260308 0.870301 0.258077 0 255 0
0.026634 -0.142767 0.071915 0 127 127
-0.067189 0.919410 0.152225 0 255 0
-0.006247 0.148190 0.305183 204 51 127
0.297765 0.683990 0.251035 0 255 0
-0.141482 -0.654601 0.279013 0 255 0
0.338891 0.915896 0.068228 0 255 0
0.258169 -0.004758 0.305183 204 51 127
0.045133 0.297789 -0.143140 127 0 127
-0.022293 -0.284257 0.305183 204 51 127
-0.176108 0.295569 0.100508 127 0 127
0.066643 -0.578274 -0.086407 0 255 0
-0.331068 -0.010622 0.208897 0 255 0
0.053831 0.813230 0.258077 0 255 0
0.250012 0.448502 0.305183 204 51 127
0.278407 -0.578274 0.140718 0 255 0
-0.248461 0.068183 -0.317669 0 255 0
-0.081125 -0.145473 -0.278451 0 127 127
0.111308 -0.943912 0.104896 0 255 0
-0.331068 -0.871433 -0.005966 0 255 0
-0.080829 -0.145683 0.013384 0 127 127
-0.177570 0.613761 -0.317669 0 255 0
-0.023959 0.854386 -0.317669 0 255 0
-0.150842 0.918023 0.305865 76 0 153
0.281679 0.751920 0.172053 0 255 0
-0.331068 0.857655 0.057130 0 255 0
-0.096357 -0.552518 0.305183 204 51 127
0.338891 0.042834 0.015258 0 255 0
0.160679 -0.578274 -0.177088 0 255 0
0.141413 -0.145378 0.180048 0 127 127
-0.289195 0.653072 0.242413 0 255 0
-0.269700 0.352891 -0.317669 0 255 0
0.297765 0.655051 -0.074076 0 255 0
-0.331068 0.279176 -0.191996 0 255 0
0.018772 -0.943912 0.139766 0 255 0
0.236906 -0.943912 0.021601 0 255 0
0.102177 0.855993 -0.317669 0 255 0
0.179299 -0.010276 -0.307201 0 255 0
0.136070 0.919410 0.133766 0 255 0
-0.295022 -0.943912 -0.220406 0 255 0
0.297765 0.238781 0.055406 0 255 0
-0.331068 0.587895 0.015847 0 255 0
0.231823 0.919410 0.270603 0 255 0
0.146937 -0.874490 -0.317669 0 255 0
0.007027 -0.943912 0.010013 0 255 0
-0.042079 -0.943912 0.254508 0 255 0
-0.098778 0.919410 -0.177213 0 255 0
0.293524 -0.753899 0.310417 0 255 0
0.089715 -0.144115 -0.174254 0 127 127
0.051395 -0.377335 -0.307201 0 255 0
-0.029428 0.296564 -0.260331 127 0 127
-0.331068 0.390474 0.018201 0 255 0
-0.192027 0.203321 0.305183 204 51 127
0.297765 0.450466 -0.255021 0 255 0
-0.094724 0.751920 -0.198491 0 255 0
0.284543 0.869598 -0.317669 0 255 0
-0.010555 -0.027874 0.305183 204 51 127
-0.331068 0.733171 0.193180 0 255 0
0.191546 0.500650 -0.317669 0 255 0
0.338891 0.712731 -0.021465 0 255 0
0.338891 -0.037683 0.077434 0 255 0
0.116563 0.159965 0.299949 204 51 127
-0.331068 -0.565875 0.063885 0 255 0
0.297765 0.360396 0.025592 0 255 0
0.150927 -0.943912 -0.185869 0 255 0
0.297765 0.582327 -0.254904 0 255 0
-0.042666 0.046542 -0.307201 0 255 0
-0.331068 -0.639981 -0.158906 0 255 0
0.297765 -0.434197 -0.177539 0 255 0
-0.065005 0.840904 0.305183 76 0 153
0.338891 -0.162963 0.201398 0 255 0
-0.213367 -0.578274 -0.053180 0 255 0
-0.289195 -0.055821 0.116759 0 255 0
-0.145258 -0.578274 0.055844 0 255 0
-0.331068 -0.548841 0.258281 0 255 0
-0.289195 -0.463468 0.026965 0 255 0
-0.331068 0.320698 0.082541 0 255 0
0.338891 -0.902196 -0.012419 0 255 0
-0.289195 0.652009 0.005535 0 255 0
-0.180660 -0.424861 0.305183 204 51 127
0.030689 0.146470 -0.307201 0 255 0
0.286701 -0.578274 0.216272 0 255 0
-0.331068 -0.798144 0.026244 0 255 0
-0.331068 0.501682 -0.259491 0 255 0
0.207678 0.208628 0.305183 204 51 127
0.052323 0.919410 -0.188763 0 255 0
-0.193760 0.297490 -0.244019 127 0 127
-0.204494 -0.145699 0.097308 0 127 127
0.338891 -0.828074 0.262030 0 255 0
0.338891 0.186491 -0.082504 0 255 0
0.116430 -0.612987 -0.317669 0 255 0
0.338891 0.899804 -0.057031 0 255 0
-0.073212 -0.099465 0.299949 204 51 127
0.297765 -0.202557 -0.186088 0 255 0
-0.216236 -0.141797 -0.165631 0 127 127
-0.066639 -0.578274 0.192116 0 255 0
0.254315 -0.314086 -0.317669 0 255 0
-0.289195 0.141276 -0.292828 0 255 0
0.262344 0.351670 0.305183 204 51 127
0.171056 -0.544990 0.299949 204 51 127
0.338891 0.657472 -0.187964 0 255 0
0.297765 -0.232639 -0.099916 0 255 0
-0.217434 -0.543089 0.305183 204 51 127
-0.331068 -0.061473 -0.316846 0 255 0
0.104263 -0.005013 0.305183 204 51 127
0.100685 0.294812 0.226672 127 0 127
0.006445 -0.790466 0.310417 0 255 0
-0.171853 -0.861534 -0.317669 0 255 0
-0.030262 -0.364500 -0.317669 0 255 0
0.297765 0.564673 0.056839 0 255 0
0.297765 0.093138 0.114808 0 255 0
-0.083725 0.326864 -0.317669 0 255 0
0.338891 -0.126357 -0.187660 0 255 0
0.338891 0.009451 -0.141730 0 255 0
0.297765 -0.250297 -0.278936 0 255 0
0.126520 -0.943912 -0.042701 0 255 0
0.180455 -0.437847 -0.307201 0 255 0
-0.289195 0.669022 -0.279461 0 255 0
0.279710 0.751920 -0.128295 0 255 0
0.292129 -0.576046 0.305183 204 51 127
0.338891 -0.633044 -0.218402 0 255 0
-0.289195 -0.524488 0.191611 0 255 0
0.195989 0.761368 0.305183 76 0 153
0.178695 -0.813888 -0.317669 0 255 0
-0.265300 0.919410 0.122816 0 255 0
-0.096649 0.547308 -0.307201 0 255 0
0.096037 0.295856 0.101952 127 0 127
0.338891 0.449643 0.118825 0 255 0
0.297765 0.145043 0.004032 0 255 0
0.297765 0.086533 -0.254564 0 255 0
-0.331068 -0.564049 -0.009293 0 255 0
0.086575 -0.943912 0.026573 0 255 0
-0.331068 0.105466 -0.024668 0 255 0
-0.289195 0.240062 -0.067574 0 255 0
0.338891 0.403756 -0.179899 0 255 0
-0.073450 0.617396 0.305183 204 51 127
-0.289195 0.435937 0.066010 0 255 0
-0.142833 -0.145917 -0.152578 0 127 127
0.148783 0.297030 0.152707 127 0 127
-0.285146 -0.640702 -0.317669 0 255 0
0.178447 -0.237939 0.305183 204 51 127
-0.229092 0.226220 -0.317669 0 255 0
0.338891 0.847951 -0.295419 0 255 0
-0.289195 -0.364520 0.127470 0 255 0
-0.199922 -0.578274 -0.190114 0 255 0
-0.289195 -0.370290 0.265469 0 255 0
0.338891 -0.418004 0.113366 0 255 0
-0.293755 0.761473 -0.317669 0 255 0
-0.179090 -0.264482 0.305183 204 51 127
-0.195155 -0.943912 0.077018 0 255 0
0.255256 0.115174 0.299949 204 51 127
-0.204726 0.297759 -0.114132 127 0 127
0.263238 -0.101455 -0.317669 0 255 0
0.338891 -0.343984 0.119110 0 255 0
0.254568 0.559998 0.305183 204 51 127
-0.095719 -0.557009 -0.307201 0 255 0
-0.223408 0.881659 -0.317669 0 255 0
-0.331068 0.903898 0.128947 0 255 0
-0.234784 -0.120346 0.237107 0 127 127
0.015775 0.006799 -0.317669 0 255 0
-0.212917 -0.766010 0.284247 0 255 0
0.097393 0.566146 -0.307201 0 255 0
-0.331068 0.319211 0.217313 0 255 0
-0.331068 0.690957 -0.230349 0 255 0
0.338891 0.061568 -0.069394 0 255 0
-0.291986 0.367588 0.289481 76 0 153
-0.289195 -0.186211 0.277229 0 255 0
-0.067313 -0.578274 0.067101 0 255 0
-0.331068 0.567710 -0.300245 0 255 0
-0.039486 -0.145270 -0.164945 0 127 127
0.270582 -0.845316 -0.317669 0 255 0
-0.120052 0.919410 0.252250 0 255 0
-0.289195 -0.229234 0.094943 0 255 0
-0.331068 -0.311828 0.001819 0 255 0
0.015765 -0.708863 -0.317669 0 255 0
0.297765 0.698719 -0.256463 0 255 0
-0.201563 0.322953 0.226672 127 0 127
0.287420 0.843451 0.258077 0 255 0
0.297765 -0.439764 -0.102900 0 255 0
0.018503 0.845838 0.305183 76 0 153
-0.042507 0.751920 -0.005059 0 255 0
0.338891 0.638981 0.112078 0 255 0
-0.331068 -0.720545 -0.266363 0 255 0
0.338891 -0.371448 -0.060080 0 255 0
0.297765 0.059268 0.059545 0 255 0
-0.001682 0.401375 -0.317669 0 255 0
0.248801 -0.861762 0.310417 0 255 0
0.011037 -0.943912 -0.063344 0 255 0
-0.331068 0.635494 0.146517 0 255 0
-0.154554 -0.366839 -0.307201 0 255 0
-0.289195 -0.451279 0.261532 0 255 0
-0.322160 0.919410 0.258728 0 255 0
0.297765 -0.429252 -0.255717 0 255 0
-0.331068 0.021115 0.020747 0 255 0
0.048128 0.349584 -0.317669 0 255 0
-0.042048 0.919410 -0.147248 0 255 0
-0.271089 0.751920 -0.219374 0 255 0
0.150833 0.403046 0.299949 204 51 127
0.043095 -0.578274 0.231245 0 255 0
0.073010 0.751920 -0.003549 0 255 0
0.019267 0.751920 -0.115039 0 255 0
-0.316709 -0.966635 0.259601 153 0 76
0.338891 -0.803628 -0.117843 0 255 0
-0.327094 0.258420 0.307061 76 0 153
0.338891 -0.930905 -0.269324 0 255 0
-0.238107 0.297467 0.023641 127 0 127
-0.053163 0.494636 0.299949 204 51 127
-0.018180 -0.149082 -0.305385 0 127 127
0.338891 0.764956 0.217299 0 255 0
0.142634 -0.943912 -0.264250 0 255 0
-0.002344 -0.161833 0.299949 204 51 127
-0.100425 -0.943912 -0.105439 0 255 0
0.043087 -0.064625 0.305183 204 51 127
0.052248 0.456564 0.305183 204 51 127
0.338891 0.835608 0.011791 0 255 0
-0.331068 0.128074 0.180430 0 255 0
-0.289195 0.352314 0.187068 0 255 0
-0.181738 -0.586151 -0.317669 0 255 0
-0.289195 -0.204052 -0.112412 0 255 0
0.297765 0.508119 -0.176956 0 255 0
-0.134839 -0.943912 0.173157 0 255 0
0.210530 0.751920 0.161586 0 255 0
-0.121808 -0.816882 0.310417 0 255 0
-0.331068 0.462802 0.155099 0 255 0
-0.289195 -0.533652 -0.278487 0 255 0
0.091342 0.919410 0.277065 0 255 0
-0.331068 -0.104960 0.225112 0 255 0
-0.331068 0.539126 0.232635 0 255 0
0.297765 0.155087 0.197257 0 255 0
-0.077759 0.295954 0.048550 127 0 127
-0.331068 0.425875 -0.084584 0 255 0
0.297765 0.346584 -0.280437 0 255 0
0.160083 -0.578274 0.235794 0 255 0
0.320926 -0.518819 0.310309 76 0 153
-0.061221 0.210288 -0.317669 0 255 0
0.249425 0.919410 -0.049748 0 255 0
-0.128361 0.536546 0.305183 204 51 127
0.068473 0.663061 -0.317669 0 255 0
0.017765 -0.943912 0.255097 0 255 0
0.297765 -0.552667 -0.052777 0 255 0
-0.166579 0.081588 0.299949 204 51 127
-0.331068 0.538709 -0.171451 0 255 0
0.338891 0.350347 0.115708 0 255 0
-0.331068 0.863394 -0.096492 0 255 0
0.338891 0.850722 0.138104 0 255 0
0.338891 0.896236 0.298105 76 0 153
-0.289195 -0.062633 -0.261990 0 255 0
-0.245927 -0.142304 -0.236022 0 127 127
-0.284088 0.468034 -0.317669 0 255 0
-0.289195 0.233957 0.103885 0 255 0
0.306506 0.599341 0.279013 0 255 0
0.338891 -0.480331 0.244622 0 255 0
-0.239273 0.564125 -0.307201 0 255 0
0.297765 -0.451867 0.040589 0 255 0
0.338891 0.187992 -0.280015 0 255 0
0.159558 0.297373 0.007054 127 0 127
-0.331068 -0.668564 0.261383 0 255 0
-0.243238 -0.469193 0.305183 204 51 127
0.338891 0.462468 0.253749 0 255 0
0.230573 0.919410 -0.141143 0 255 0
-0.331068 -0.152439 0.182517 0 255 0
0.173223 -0.717863 0.310417 0 255 0
0.338891 -0.564330 0.247416 0 255 0
-0.289195 0.207600 0.013649 0 255 0
-0.076015 -0.619401 0.294062 76 0 153
-0.289195 0.366700 0.121641 0 255 0
0.338891 0.126844 -0.272065 0 255 0
0.297765 0.522807 0.262206 0 255 0
-0.331068 0.474859 -0.206687 0 255 0
0.338891 -0.308059 -0.146744 0 255 0
0.338891 -0.905338 0.240567 0 255 0
-0.126338 -0.457426 0.305183 204 51 127
-0.331068 -0.501059 0.141588 0 255 0
-0.294482 0.586591 0.307283 76 0 153
-0.289195 0.158706 -0.076025 0 255 0
-0.331068 -0.779224 0.199172 0 255 0
0.242730 -0.545705 -0.317669 0 255 0
-0.278727 0.297081 -0.171631 127 0 127
0.110442 0.294853 -0.238621 127 0 127
0.338891 -0.770568 -0.232086 0 255 0
-0.279218 0.471239 0.299949 204 51 127
-0.289195 -0.431866 -0.043524 0 255 0
-0.177766 -0.943912 -0.264230 0 255 0
0.338891 -0.255978 0.142285 0 255 0
0.186308 -0.793094 0.310417 0 255 0
-0.331068 -0.164252 -0.228417 0 255 0
-0.331068 -0.683621 0.030508 0 255 0
0.212292 0.751920 -0.048478 0 255 0
0.338891 0.049394 -0.228461 0 255 0
0.332481 -0.188331 0.308016 76 0 153
0.297765 -0.276526 0.259523 0 255 0
-0.120761 0.919410 0.186838 0 255 0
0.304713 0.713129 0.308189 76 0 153
-0.153062 0.125017 -0.317669 0 255 0
0.297765 0.078090 -0.178592 0 255 0
0.297765 0.451771 0.026970 0 255 0
-0.331068 -0.120367 0.095283 0 255 0
-0.260787 -0.943912 0.094535 0 255 0
0.297765 -0.512816 -0.125377 0 255 0
0.118722 0.791896 -0.317669 0 255 0
0.244177 0.133574 -0.307201 0 255 0
0.214416 -0.145588 -0.177718 0 127 127
-0.148051 -0.713320 0.284247 0 255 0
-0.331068 -0.934210 -0.129088 0 255 0
-0.248348 -0.196752 -0.317669 0 255 0
-0.047589 0.297711 -0.192573 127 0 127
0.297765 0.328896 0.074849 0 255 0
-0.104415 0.189388 0.299949 204 51 127
0.030674 0.642276 0.299949 204 51 127
0.338891 0.472212 -0.101660 0 255 0
-0.272501 -0.578274 -0.161824 0 255 0
-0.153151 -0.578274 -0.003591 0 255 0
0.084940 0.074355 -0.317669 0 255 0
-0.331068 -0.056842 -0.052805 0 255 0
0.337384 -0.926298 0.308851 0 255 0
0.297765 0.271510 0.239439 0 255 0
-0.169458 -0.152213 -0.317669 0 255 0
-0.249132 0.070205 0.299949 204 51 127
-0.126902 0.919410 -0.044339 0 255 0
-0.324961 -0.732376 0.310417 0 255 0
-0.272144 0.767113 0.258077 0 255 0
0.044988 0.919410 -0.081119 0 255 0
0.037127 0.296862 0.133792 127 0 127
0.338891 0.248415 0.095301 0 255 0
0.250341 0.198506 -0.307201 0 255 0
0.007450 0.719706 0.299949 204 51 127
-0.129449 -0.325753 0.299949 204 51 127
0.338891 0.612239 -0.004521 0 255 0
0.297765 -0.167255 0.265319 0 255 0
-0.066050 -0.886607 0.279013 0 255 0
0.194285 -0.673940 0.279013 0 255 0
0.338891 -0.719344 -0.153093 0 255 0
-0.289195 -0.455380 -0.188461 0 255 0
0.074993 -0.578274 0.159422 0 255 0
-0.331068 0.662243 0.203469 0 255 0
0.172184 0.887441 -0.317669 0 255 0
0.338891 0.448446 0.185203 0 255 0
-0.286540 0.751920 -0.063337 0 255 0
-0.331068 -0.472704 -0.094729 0 255 0
0.338891 -0.718602 -0.027913 0 255 0
0.338891 -0.691606 0.138587 0 255 0
0.083779 -0.784785 0.310417 0 255 0
0.040201 0.886852 -0.317669 0 255 0
0.338891 0.766792 0.100986 0 255 0
0.164643 0.853918 0.305183 76 0 153
-0.274779 -0.578408 0.289481 76 0 153
-0.289195 0.208051 0.229112 0 255 0
0.185873 -0.217750 -0.307201 0 255 0
0.238550 0.752585 -0.317669 0 255 0
0.338891 0.311342 -0.138473 0 255 0
-0.331068 0.530617 0.027701 0 255 0
-0.071645 0.431136 0.305183 204 51 127
0.338891 -0.732930 0.203944 0 255 0
-0.289195 0.276689 -0.006054 0 255 0
-0.174387 0.297860 -0.060133 127 0 127
-0.289195 -0.080808 -0.147207 0 255 0
0.338891 -0.094767 0.261663 0 255 0
-0.289195 0.358689 -0.004996 0 255 0
0.121385 0.684650 -0.307201 0 255 0
0.214276 0.294171 0.216204 127 0 127
0.297765 -0.376432 0.002975 0 255 0
0.022426 0.294678 -0.296732 127 0 127
-0.289195 -0.106949 -0.014701 0 255 0
-0.331068 -0.320736 0.060099 0 255 0
-0.289195 0.267882 -0.231935 0 255 0
0.338891 -0.056117 -0.072044 0 255 0
-0.102902 -0.244257 -0.317669 0 255 0
0.297765 0.021827 -0.085524 0 255 0
-0.331068 -0.503570 0.294974 76 0 153
-0.109151 0.295867 0.162510 127 0 127
-0.289942 -0.079742 0.302814 76 0 153
-0.289195 0.363640 -0.154342 0 255 0
-0.213473 -0.091163 -0.317669 0 255 0
-0.134687 0.751920 0.222277 0 255 0
0.338891 0.768932 -0.031498 0 255 0
0.240424 -0.578274 0.260569 0 255 0
0.338891 -0.343835 -0.206936 0 255 0
0.297765 0.037509 0.142516 0 255 0
0.338891 0.159929 -0.170206 0 255 0
-0.289195 0.663149 -0.060051 0 255 0
-0.289195 0.609618 0.175252 0 255 0
-0.331068 -0.901504 0.160461 0 255 0
-0.331068 0.160756 0.031077 0 255 0
0.338256 -0.943912 0.196498 0 255 0
-0.001871 -0.065921 -0.307201 0 255 0
0.196490 -0.943912 0.083337 0 255 0
-0.068471 0.297688 -0.058638 127 0 127
0.125503 0.329757 -0.317669 0 255 0
-0.154625 -0.578274 0.114020 0 255 0
0.338891 0.490182 0.034837 0 255 0
-0.331068 0.186620 -0.178477 0 255 0
-0.289195 0.175714 -0.226393 0 255 0
0.058816 0.871613 0.258077 0 255 0
0.338891 0.333047 -0.002437 0 255 0
0.043247 -0.382488 0.299949 204 51 127
0.338891 -0.030761 -0.237532 0 255 0
0.338891 0.528265 -0.286853 0 255 0
0.036951 -0.935845 -0.317669 0 255 0
0.297765 -0.450251 0.135514 0 255 0
-0.331068 -0.733606 0.162783 0 255 0
-0.331068 -0.039649 0.159029 0 255 0
0.338891 -0.339570 0.176781 0 255 0
-0.289195 -0.546686 -0.103611 0 255 0
-0.331068 -0.798583 0.082924 0 255 0
-0.222609 0.751920 -0.100201 0 255 0
0.338891 0.157187 0.086304 0 255 0
0.039296 -0.677927 0.279013 0 255 0
-0.331068 0.070458 -0.269231 0 255 0
-0.289195 0.545409 -0.130411 0 255 0
0.338891 -0.394937 0.220080 0 255 0
-0.289195 0.078050 -0.060592 0 255 0
0.152240 0.200611 -0.317669 0 255 0
-0.331068 0.179189 -0.278996 0 255 0
-0.175107 0.751920 -0.216506 0 255 0
0.072711 0.919410 0.122957 0 255 0
-0.086249 -0.742588 0.279013 0 255 0
0.030936 -0.817293 -0.317669 0 255 0
0.338891 0.563376 0.250031 0 255 0
0.338891 0.256752 0.157601 0 255 0
-0.068172 0.700173 0.299949 204 51 127
-0.331068 0.728653 0.076929 0 255 0
-0.289195 0.269844 0.178725 0 255 0
-0.154762 0.919410 -0.187122 0 255 0
0.297765 -0.512295 -0.247340 0 255 0
-0.331068 -0.320251 0.126748 0 255 0
-0.022145 0.104308 -0.317669 0 255 0
0.192278 0.919410 0.143476 0 255 0
0.281349 -0.699704 0.279013 0 255 0
-0.289195 0.492723 0.061448 0 255 0
0.195715 -0.418532 0.299949 204 51 127
