ply
format ascii 1.0
element vertex 620
property float x
property float y
property float z
property float nx
property float ny
property float nz
property uchar red
property uchar green
property uchar blue
property float opacity
end_header
-0.289195 0.233833 -0.037680 1.000000 0.000000 0.000000 255 255 255 1.000000
-0.289195 0.422312 -0.027377 1.000000 0.000000 0.000000 255 255 255 1.000000
-0.012974 0.859431 -0.317669 0.000000 0.000000 1.000000 255 255 255 1.000000
-0.331067 0.352815 -0.010257 -1.000000 0.000000 0.000000 255 255 255 1.000000
0.281721 0.919410 0.117037 0.000000 -1.000000 0.000000 255 255 255 1.000000
0.297765 -0.112701 0.122137 -1.000000 0.000000 0.000000 255 255 255 1.000000
-0.331067 -0.360583 -0.092147 1.000000 0.000000 0.000000 255 255 255 1.000000
-0.265339 -0.828737 -0.317669 0.000000 0.000000 -1.000000 255 255 255 1.000000
0.319294 -0.943912 0.251121 0.000000 -1.000000 0.000000 255 255 255 1.000000
-0.291708 -0.923381 0.289481 0.000000 0.000000 1.000000 255 255 255 1.000000
-0.085870 0.466390 -0.317669 0.000000 0.000000 -1.000000 255 255 255 1.000000
0.168638 0.441755 -0.307201 0.000000 0.000000 -1.000000 255 255 255 1.000000
-0.036379 -0.145196 0.061328 0.761096 -0.648639 0.000000 255 255 255 1.000000
0.297765 0.502046 -0.077086 -1.000000 0.000000 0.000000 255 255 255 1.000000
-0.196709 0.446141 0.305183 0.000000 0.000000 1.000000 244 244 244 0.500000
-0.138915 -0.692760 0.305812 0.364374 -0.888824 -0.277893 255 255 255 1.000000
-0.289195 -0.434037 -0.223422 -1.000000 0.000000 0.000000 255 255 255 1.000000
0.021866 0.092108 0.299949 0.000000 0.000000 1.000000 244 244 244 0.500000
0.308102 0.706724 0.309168 0.237850 0.000000 -0.971302 255 255 255 1.000000
-0.331067 -0.655528 -0.280321 1.000000 0.000000 0.000000 255 255 255 1.000000
-0.289195 -0.448502 -0.092847 1.000000 0.000000 0.000000 255 255 255 1.000000
0.297765 0.437328 -0.139937 1.000000 0.000000 0.000000 255 255 255 1.000000
-0.331067 0.666857 0.061440 -1.000000 0.000000 0.000000 255 255 255 1.000000
-0.331067 0.131562 -0.284810 -1.000000 0.000000 0.000000 255 255 255 1.000000
0.038610 0.388447 0.299949 0.000000 0.000000 -1.000000 244 244 244 0.500000
-0.331067 -0.184165 0.073749 -1.000000 0.000000 0.000000 255 255 255 1.000000
-0.027111 0.186302 -0.307201 0.000000 0.000000 -1.000000 255 255 255 1.000000
-0.289195 -0.342174 0.137216 -1.000000 0.000000 0.000000 255 255 255 1.000000
-0.313031 0.725121 0.310312 0.058781 0.000000 -0.998271 255 255 255 1.000000
-0.107055 -0.578275 -0.048217 0.000000 -1.000000 0.000000 255 255 255 1.000000
0.257749 -0.071875 -0.317669 0.000000 0.000000 1.000000 255 255 255 1.000000
0.297765 0.187687 0.256135 1.000000 0.000000 0.000000 255 255 255 1.000000
0.048545 -0.943912 0.233717 0.000000 1.000000 0.000000 255 255 255 1.000000
-0.278801 -0.943912 -0.153026 0.000000 -1.000000 0.000000 255 255 255 1.000000
0.338891 0.528678 -0.095002 1.000000 0.000000 0.000000 255 255 255 1.000000
0.194634 -0.578275 0.121147 0.000000 1.000000 0.000000 255 255 255 1.000000
0.143017 0.919410 0.263722 0.000000 1.000000 0.000000 255 255 255 1.000000
0.076884 0.297865 0.029837 0.146801 -0.989166 0.000000 255 255 255 1.000000
-0.289195 0.266583 -0.220846 1.000000 0.000000 0.000000 255 255 255 1.000000
0.116967 0.027244 0.305183 0.000000 0.000000 1.000000 244 244 244 0.500000
-0.310044 -0.256192 -0.317669 0.000000 0.000000 1.000000 255 255 255 1.000000
0.297765 0.090893 0.130297 1.000000 0.000000 0.000000 255 255 255 1.000000
-0.125690 0.751921 -0.266423 0.000000 -1.000000 0.000000 255 255 255 1.000000
-0.249027 -0.145037 -0.176817 0.820159 0.572135 0.000000 255 255 255 1.000000
0.274183 -0.144687 -0.184718 -0.914790 -0.403931 0.000000 255 255 255 1.000000
0.225615 0.919410 0.275378 0.000000 1.000000 0.000000 255 255 255 1.000000
-0.331067 0.598562 0.040038 -1.000000 0.000000 0.000000 255 255 255 1.000000
-0.136910 -0.943912 0.044706 0.000000 1.000000 0.000000 255 255 255 1.000000
0.221869 0.919410 -0.316657 0.000000 -1.000000 0.000000 255 255 255 1.000000
0.031846 0.919410 -0.069638 0.000000 1.000000 0.000000 255 255 255 1.000000
0.297765 -0.340177 0.291026 1.000000 0.000000 0.000000 255 255 255 1.000000
-0.158054 -0.362133 0.299949 0.000000 0.000000 1.000000 244 244 244 0.500000
0.338891 -0.342447 -0.242040 1.000000 0.000000 0.000000 255 255 255 1.000000
0.297765 0.211973 0.192797 -1.000000 0.000000 0.000000 255 255 255 1.000000
-0.266202 0.295531 0.192324 0.990837 -0.135064 0.000000 255 255 255 1.000000
0.011390 0.919410 0.009318 0.000000 1.000000 0.000000 255 255 255 1.000000
-0.331067 -0.663456 -0.144390 -1.000000 0.000000 0.000000 255 255 255 1.000000
0.155155 0.376886 0.305183 0.000000 0.000000 1.000000 244 244 244 0.500000
-0.059009 -0.578275 -0.144731 0.000000 -1.000000 0.000000 255 255 255 1.000000
0.058155 0.296642 -0.105563 -0.916409 -0.400243 0.000000 255 255 255 1.000000
0.028809 0.558075 -0.317669 0.000000 0.000000 1.000000 255 255 255 1.000000
0.297765 0.709894 0.274570 1.000000 0.000000 0.000000 255 255 255 1.000000
-0.238335 0.919410 -0.180793 0.000000 1.000000 0.000000 255 255 255 1.000000
-0.103965 -0.192411 -0.317669 0.000000 0.000000 -1.000000 255 255 255 1.000000
-0.226376 0.112273 0.305183 0.000000 0.000000 1.000000 244 244 244 0.500000
-0.183943 0.919410 -0.065726 0.000000 1.000000 0.000000 255 255 255 1.000000
0.143609 -0.943912 0.002957 0.000000 -1.000000 0.000000 255 255 255 1.000000
-0.331067 0.815931 -0.270380 -1.000000 0.000000 0.000000 255 255 255 1.000000
-0.289195 0.648507 0.101132 1.000000 0.000000 0.000000 255 255 255 1.000000
0.274212 0.751921 0.245789 0.000000 1.000000 0.000000 255 255 255 1.000000
-0.056226 -0.943912 -0.114874 0.000000 -1.000000 0.000000 255 255 255 1.000000
-0.331067 -0.196711 0.202004 -1.000000 0.000000 0.000000 255 255 255 1.000000
0.013257 -0.142094 0.138102 -0.539134 0.842220 0.000000 255 255 255 1.000000
-0.093061 0.919410 -0.125467 0.000000 -1.000000 0.000000 255 255 255 1.000000
0.282228 -0.551695 0.299949 0.000000 0.000000 -1.000000 244 244 244 0.500000
0.176419 0.751921 0.115372 0.000000 1.000000 0.000000 255 255 255 1.000000
0.268145 -0.578275 -0.109974 0.000000 1.000000 0.000000 255 255 255 1.000000
-0.192203 -0.874476 0.310417 0.026011 0.020410 -0.999453 255 255 255 1.000000
-0.102775 0.699863 -0.307201 0.000000 0.000000 1.000000 255 255 255 1.000000
-0.289195 -0.521272 0.093246 1.000000 0.000000 0.000000 255 255 255 1.000000
0.338891 0.678716 -0.057055 1.000000 0.000000 0.000000 255 255 255 1.000000
-0.250648 -0.943912 -0.055856 0.000000 1.000000 0.000000 255 255 255 1.000000
0.316789 -0.070199 0.310353 -0.035815 0.000000 0.999358 255 255 255 1.000000
-0.004347 0.764590 0.305183 0.000000 0.000000 -1.000000 255 255 255 1.000000
0.333338 -0.623169 0.299350 0.921276 0.000000 0.388910 255 255 255 1.000000
-0.289195 -0.041475 -0.247219 1.000000 0.000000 0.000000 255 255 255 1.000000
0.027161 -0.943912 -0.277861 0.000000 1.000000 0.000000 255 255 255 1.000000
-0.331067 -0.491304 0.095083 1.000000 0.000000 0.000000 255 255 255 1.000000
0.209425 -0.521149 -0.307201 0.000000 0.000000 -1.000000 255 255 255 1.000000
-0.247776 0.811788 -0.317669 0.000000 0.000000 -1.000000 255 255 255 1.000000
0.073141 -0.108777 0.299949 0.000000 0.000000 1.000000 244 244 244 0.500000
-0.156699 0.476619 0.305183 0.000000 0.000000 1.000000 244 244 244 0.500000
-0.213258 -0.943912 0.075220 0.000000 1.000000 0.000000 255 255 255 1.000000
0.297765 0.208922 -0.067649 1.000000 0.000000 0.000000 255 255 255 1.000000
-0.235963 0.751921 -0.142348 0.000000 -1.000000 0.000000 255 255 255 1.000000
-0.289195 -0.419388 0.278766 1.000000 0.000000 0.000000 255 255 255 1.000000
-0.331067 0.204028 -0.188518 -1.000000 0.000000 0.000000 255 255 255 1.000000
0.338891 -0.912097 -0.221144 -1.000000 0.000000 0.000000 255 255 255 1.000000
-0.103360 -0.839625 0.284247 0.000000 0.000000 1.000000 255 255 255 1.000000
0.084396 -0.484795 -0.317669 0.000000 0.000000 1.000000 255 255 255 1.000000
-0.331067 0.229985 0.126925 -1.000000 0.000000 0.000000 255 255 255 1.000000
0.338891 -0.523979 -0.094858 -1.000000 0.000000 0.000000 255 255 255 1.000000
0.226238 0.919410 0.014175 0.000000 1.000000 0.000000 255 255 255 1.000000
0.013374 0.257734 0.299949 0.000000 0.000000 1.000000 244 244 244 0.500000
0.164070 0.418059 0.305183 0.000000 0.000000 1.000000 244 244 244 0.500000
0.338891 0.853214 0.164883 1.000000 0.000000 0.000000 255 255 255 1.000000
0.322158 -0.943912 0.220756 0.000000 1.000000 0.000000 255 255 255 1.000000
0.021121 -0.349516 -0.307201 0.000000 0.000000 1.000000 255 255 255 1.000000
-0.048397 -0.943912 -0.154357 0.000000 1.000000 0.000000 255 255 255 1.000000
0.221909 -0.578275 0.051424 0.000000 -1.000000 0.000000 255 255 255 1.000000
0.164094 -0.722071 0.303884 0.000000 -0.662053 -0.749457 255 255 255 1.000000
0.338891 -0.814371 -0.267182 1.000000 0.000000 0.000000 255 255 255 1.000000
-0.289195 0.185795 0.069982 -1.000000 0.000000 0.000000 255 255 255 1.000000
-0.021251 -0.746523 0.297820 0.000000 0.928019 0.372532 255 255 255 1.000000
-0.327156 0.429669 0.279013 0.000000 0.000000 1.000000 255 255 255 1.000000
0.297765 -0.325272 -0.287097 -1.000000 0.000000 0.000000 255 255 255 1.000000
-0.233225 0.898474 0.285489 0.000000 -1.000000 0.000000 255 255 255 1.000000
0.280805 0.168698 -0.307201 0.000000 0.000000 1.000000 255 255 255 1.000000
0.338891 -0.698497 -0.263000 1.000000 0.000000 0.000000 255 255 255 1.000000
-0.331067 -0.007867 0.132037 -1.000000 0.000000 0.000000 255 255 255 1.000000
0.221743 0.212607 0.305183 0.000000 0.000000 -1.000000 244 244 244 0.500000
0.045349 0.349576 0.305183 0.000000 0.000000 -1.000000 244 244 244 0.500000
0.077512 0.240048 -0.317669 0.000000 0.000000 -1.000000 255 255 255 1.000000
0.338891 -0.678762 0.204447 1.000000 0.000000 0.000000 255 255 255 1.000000
0.338891 -0.193492 0.271058 -1.000000 0.000000 0.000000 255 255 255 1.000000
0.131510 0.919410 -0.266731 0.000000 1.000000 0.000000 255 255 255 1.000000
-0.310131 0.519485 0.281299 -1.000000 0.000000 0.000000 255 255 255 1.000000
0.338891 0.570877 -0.058014 -1.000000 0.000000 0.000000 255 255 255 1.000000
0.297765 0.375255 -0.124103 1.000000 0.000000 0.000000 255 255 255 1.000000
-0.289195 0.564437 0.144514 1.000000 0.000000 0.000000 255 255 255 1.000000
0.297765 -0.413961 0.263289 1.000000 0.000000 0.000000 255 255 255 1.000000
0.297765 0.543095 0.238532 1.000000 0.000000 0.000000 255 255 255 1.000000
0.297765 0.498310 -0.136440 -1.000000 0.000000 0.000000 255 255 255 1.000000
-0.165806 -0.256429 0.305183 0.000000 0.000000 1.000000 244 244 244 0.500000
0.297765 0.112184 0.241530 1.000000 0.000000 0.000000 255 255 255 1.000000
-0.162783 0.642602 0.299949 0.000000 0.000000 1.000000 244 244 244 0.500000
-0.265734 0.124171 -0.307201 0.000000 0.000000 -1.000000 255 255 255 1.000000
-0.303799 -0.325095 -0.317669 0.000000 0.000000 1.000000 255 255 255 1.000000
0.338891 -0.065215 -0.005787 1.000000 0.000000 0.000000 255 255 255 1.000000
-0.289195 0.580925 0.101827 1.000000 0.000000 0.000000 255 255 255 1.000000
0.150622 0.293739 -0.218747 -0.075415 0.997152 0.000000 255 255 255 1.000000
0.338891 -0.911875 0.300559 0.898487 -0.430895 0.083971 255 255 255 1.000000
0.297765 0.555911 -0.107921 1.000000 0.000000 0.000000 255 255 255 1.000000
0.118392 0.092530 0.299949 0.000000 0.000000 1.000000 244 244 244 0.500000
0.085641 -0.144406 0.182515 -0.963793 -0.266652 0.000000 255 255 255 1.000000
-0.244335 -0.723903 -0.317669 0.000000 0.000000 1.000000 255 255 255 1.000000
-0.166477 0.599405 0.305183 0.000000 0.000000 -1.000000 244 244 244 0.500000
0.243190 -0.145319 -0.249136 0.711345 0.702843 0.000000 255 255 255 1.000000
0.297765 0.399109 -0.221571 -1.000000 0.000000 0.000000 255 255 255 1.000000
-0.331067 -0.693737 0.207320 1.000000 0.000000 0.000000 255 255 255 1.000000
0.083857 -0.943912 -0.144195 0.000000 1.000000 0.000000 255 255 255 1.000000
-0.129815 -0.578275 0.078115 0.000000 -1.000000 0.000000 255 255 255 1.000000
0.204376 -0.578275 -0.212245 0.000000 -1.000000 0.000000 255 255 255 1.000000
-0.155971 -0.191765 -0.307201 0.000000 0.000000 1.000000 255 255 255 1.000000
-0.289195 0.683588 -0.159209 -1.000000 0.000000 0.000000 255 255 255 1.000000
0.107721 0.496402 0.299949 0.000000 0.000000 1.000000 244 244 244 0.500000
-0.330491 0.919410 -0.037795 0.000000 1.000000 0.000000 255 255 255 1.000000
0.046942 -0.759011 0.298376 0.000000 -0.818751 -0.574149 255 255 255 1.000000
0.080846 -0.260866 -0.317669 0.000000 0.000000 1.000000 255 255 255 1.000000
0.065681 0.751921 0.182569 0.000000 1.000000 0.000000 255 255 255 1.000000
0.301721 0.816686 0.289481 0.000000 0.000000 1.000000 255 255 255 1.000000
-0.331067 0.126142 -0.242227 -1.000000 0.000000 0.000000 255 255 255 1.000000
-0.289195 0.021054 -0.128996 -1.000000 0.000000 0.000000 255 255 255 1.000000
-0.289195 -0.288770 0.185273 1.000000 0.000000 0.000000 255 255 255 1.000000
0.266893 -0.142214 0.054373 0.616133 0.787642 0.000000 255 255 255 1.000000
0.297765 -0.209821 0.179198 1.000000 0.000000 0.000000 255 255 255 1.000000
0.297765 -0.282042 0.218066 1.000000 0.000000 0.000000 255 255 255 1.000000
-0.188603 -0.831011 0.307053 0.000000 -0.526522 -0.850161 255 255 255 1.000000
0.337257 0.905629 -0.317669 0.000000 0.000000 1.000000 255 255 255 1.000000
-0.141995 0.793337 0.258076 0.000000 0.000000 1.000000 255 255 255 1.000000
0.338891 -0.631149 -0.149073 -1.000000 0.000000 0.000000 255 255 255 1.000000
-0.331067 -0.695361 -0.108998 -1.000000 0.000000 0.000000 255 255 255 1.000000
0.338891 0.837486 -0.207268 -1.000000 0.000000 0.000000 255 255 255 1.000000
-0.331067 -0.133162 -0.138956 1.000000 0.000000 0.000000 255 255 255 1.000000
0.297765 0.672343 -0.011199 1.000000 0.000000 0.000000 255 255 255 1.000000
-0.081935 0.190383 0.305183 0.000000 0.000000 -1.000000 244 244 244 0.500000
0.162475 0.297212 -0.285480 0.740458 0.672103 0.000000 255 255 255 1.000000
0.338891 -0.590637 -0.250496 1.000000 0.000000 0.000000 255 255 255 1.000000
-0.331067 0.449815 -0.011104 1.000000 0.000000 0.000000 255 255 255 1.000000
-0.331067 -0.793386 -0.235101 -1.000000 0.000000 0.000000 255 255 255 1.000000
0.338891 -0.322360 0.277127 1.000000 0.000000 0.000000 255 255 255 1.000000
0.338891 0.546316 -0.129046 -1.000000 0.000000 0.000000 255 255 255 1.000000
0.159208 0.583183 -0.317669 0.000000 0.000000 1.000000 255 255 255 1.000000
-0.279724 -0.063734 0.299949 0.000000 0.000000 1.000000 244 244 244 0.500000
-0.289195 0.401927 -0.218894 -1.000000 0.000000 0.000000 255 255 255 1.000000
-0.331067 0.640338 -0.228227 -1.000000 0.000000 0.000000 255 255 255 1.000000
-0.015620 0.757441 0.258076 0.000000 0.000000 1.000000 255 255 255 1.000000
0.338891 0.712504 -0.103849 1.000000 0.000000 0.000000 255 255 255 1.000000
-0.092308 0.338915 0.299949 0.000000 0.000000 -1.000000 244 244 244 0.500000
0.220541 0.210393 -0.307201 0.000000 0.000000 1.000000 255 255 255 1.000000
-0.264580 0.919410 0.047229 0.000000 1.000000 0.000000 255 255 255 1.000000
0.158516 -0.103396 -0.307201 0.000000 0.000000 -1.000000 255 255 255 1.000000
-0.331067 -0.691019 -0.174778 1.000000 0.000000 0.000000 255 255 255 1.000000
0.097101 -0.142026 -0.191230 -0.489579 0.871959 0.000000 255 255 255 1.000000
0.136089 -0.838346 0.310350 0.000000 0.738034 0.674763 255 255 255 1.000000
-0.331067 -0.632249 -0.122911 1.000000 0.000000 0.000000 255 255 255 1.000000
-0.165196 -0.943912 -0.198178 0.000000 -1.000000 0.000000 255 255 255 1.000000
0.265047 -0.862925 0.279013 0.000000 0.000000 -1.000000 255 255 255 1.000000
-0.289195 -0.096116 -0.211947 1.000000 0.000000 0.000000 255 255 255 1.000000
0.164261 -0.244154 0.305183 0.000000 0.000000 -1.000000 244 244 244 0.500000
0.184941 -0.486891 0.299949 0.000000 0.000000 -1.000000 244 244 244 0.500000
-0.289195 -0.572317 -0.028228 -1.000000 0.000000 0.000000 255 255 255 1.000000
-0.289195 0.237670 -0.138362 1.000000 0.000000 0.000000 255 255 255 1.000000
0.216691 0.751921 0.125522 0.000000 1.000000 0.000000 255 255 255 1.000000
-0.174999 0.919410 0.065537 0.000000 -1.000000 0.000000 255 255 255 1.000000
-0.096793 -0.515412 -0.317669 0.000000 0.000000 1.000000 255 255 255 1.000000
0.288001 0.063416 -0.317669 0.000000 0.000000 -1.000000 255 255 255 1.000000
0.121467 0.751921 -0.262836 0.000000 -1.000000 0.000000 255 255 255 1.000000
-0.070855 0.919410 -0.017481 0.000000 1.000000 0.000000 255 255 255 1.000000
-0.331067 -0.762773 -0.014605 -1.000000 0.000000 0.000000 255 255 255 1.000000
-0.263839 -0.164825 0.299949 0.000000 0.000000 1.000000 244 244 244 0.500000
-0.142324 -0.578275 -0.198416 0.000000 -1.000000 0.000000 255 255 255 1.000000
-0.331067 0.711442 -0.304724 -1.000000 0.000000 0.000000 255 255 255 1.000000
0.221307 -0.402091 0.299949 0.000000 0.000000 1.000000 244 244 244 0.500000
0.338891 0.292969 -0.195953 1.000000 0.000000 0.000000 255 255 255 1.000000
0.338891 0.462107 -0.299069 1.000000 0.000000 0.000000 255 255 255 1.000000
0.221487 0.870005 0.289481 0.000000 0.000000 -1.000000 255 255 255 1.000000
0.128552 -0.232651 -0.317669 0.000000 0.000000 -1.000000 255 255 255 1.000000
-0.309000 -0.739925 0.284247 0.000000 0.000000 -1.000000 255 255 255 1.000000
0.079425 -0.578275 0.263544 0.000000 -1.000000 0.000000 255 255 255 1.000000
0.338891 0.564265 -0.282147 -1.000000 0.000000 0.000000 255 255 255 1.000000
0.338891 0.105044 0.156989 -1.000000 0.000000 0.000000 255 255 255 1.000000
0.338891 -0.118190 -0.303914 -1.000000 0.000000 0.000000 255 255 255 1.000000
0.054651 -0.608839 -0.317669 0.000000 0.000000 1.000000 255 255 255 1.000000
0.338891 0.482780 -0.262185 -1.000000 0.000000 0.000000 255 255 255 1.000000
-0.289195 -0.425211 0.022047 -1.000000 0.000000 0.000000 255 255 255 1.000000
-0.217431 0.297249 0.045913 0.724927 -0.688826 0.000000 255 255 255 1.000000
-0.289195 -0.577320 0.195175 -1.000000 0.000000 0.000000 255 255 255 1.000000
0.059857 0.912888 0.308060 0.000000 -0.326439 -0.945218 255 255 255 1.000000
-0.331067 -0.221097 0.107749 -1.000000 0.000000 0.000000 255 255 255 1.000000
0.338891 0.431102 0.236126 -1.000000 0.000000 0.000000 255 255 255 1.000000
-0.316637 0.029001 0.361428 0.000000 0.000000 -1.000000 255 255 255 1.000000
0.104142 -0.943912 0.019675 0.000000 -1.000000 0.000000 255 255 255 1.000000
-0.224686 0.582847 0.305183 0.000000 0.000000 1.000000 244 244 244 0.500000
0.231482 -0.425757 0.299949 0.000000 0.000000 1.000000 244 244 244 0.500000
-0.247544 -0.367768 0.305183 0.000000 0.000000 1.000000 244 244 244 0.500000
0.297765 -0.480828 -0.042637 -1.000000 0.000000 0.000000 255 255 255 1.000000
0.297765 -0.451708 0.061443 1.000000 0.000000 0.000000 255 255 255 1.000000
-0.140770 -0.671229 -0.317669 0.000000 0.000000 1.000000 255 255 255 1.000000
0.070859 0.544533 -0.307201 0.000000 0.000000 -1.000000 255 255 255 1.000000
0.233481 -0.881485 -0.317669 0.000000 0.000000 1.000000 255 255 255 1.000000
-0.289195 0.540296 0.017385 1.000000 0.000000 0.000000 255 255 255 1.000000
-0.289195 0.693040 -0.203952 -1.000000 0.000000 0.000000 255 255 255 1.000000
-0.289195 0.068115 -0.252154 -1.000000 0.000000 0.000000 255 255 255 1.000000
0.297765 -0.508718 0.101263 -1.000000 0.000000 0.000000 255 255 255 1.000000
0.338891 0.693844 -0.013832 -1.000000 0.000000 0.000000 255 255 255 1.000000
-0.331067 -0.395745 0.008019 -1.000000 0.000000 0.000000 255 255 255 1.000000
-0.285530 -0.212662 0.305183 0.000000 0.000000 -1.000000 244 244 244 0.500000
-0.289195 0.136860 -0.262795 1.000000 0.000000 0.000000 255 255 255 1.000000
0.213061 -0.330839 -0.317669 0.000000 0.000000 -1.000000 255 255 255 1.000000
0.297765 -0.314865 0.174660 1.000000 0.000000 0.000000 255 255 255 1.000000
-0.288464 -0.084106 -0.317669 0.000000 0.000000 1.000000 255 255 255 1.000000
0.287297 -0.141682 -0.011662 0.999398 -0.033894 0.007336 255 255 255 1.000000
0.338891 -0.285199 0.250265 -1.000000 0.000000 0.000000 255 255 255 1.000000
-0.331067 -0.760409 0.186547 1.000000 0.000000 0.000000 255 255 255 1.000000
-0.289195 0.496879 0.192951 1.000000 0.000000 0.000000 255 255 255 1.000000
0.078616 0.803413 0.258076 0.000000 0.000000 1.000000 255 255 255 1.000000
0.338891 0.819778 -0.261891 1.000000 0.000000 0.000000 255 255 255 1.000000
0.022794 0.296113 0.010029 -0.989400 0.145214 0.000000 255 255 255 1.000000
0.190267 0.295636 -0.166017 -0.996403 -0.084745 0.000000 255 255 255 1.000000
-0.033135 0.078330 -0.307201 0.000000 0.000000 1.000000 255 255 255 1.000000
0.101937 0.919410 0.244025 0.000000 1.000000 0.000000 255 255 255 1.000000
0.313388 -0.812816 0.310417 0.041034 0.001990 0.999156 255 255 255 1.000000
0.223232 -0.829396 -0.317669 0.000000 0.000000 1.000000 255 255 255 1.000000
0.173167 0.329920 0.299949 0.000000 0.000000 -1.000000 244 244 244 0.500000
0.287595 0.769334 0.258076 0.000000 0.000000 -1.000000 255 255 255 1.000000
0.263829 0.643937 0.299949 0.000000 0.000000 -1.000000 244 244 244 0.500000
0.086559 -0.943912 -0.287534 0.000000 -1.000000 0.000000 255 255 255 1.000000
0.002912 -0.943912 -0.301884 0.000000 -1.000000 0.000000 255 255 255 1.000000
0.297765 0.744672 0.173660 -1.000000 0.000000 0.000000 255 255 255 1.000000
0.204461 -0.464159 -0.307201 0.000000 0.000000 1.000000 255 255 255 1.000000
0.338891 0.039029 0.124897 1.000000 0.000000 0.000000 255 255 255 1.000000
0.338891 -0.318916 0.150382 -1.000000 0.000000 0.000000 255 255 255 1.000000
0.267708 -0.143847 0.165775 -1.000000 -0.000601 0.000000 255 255 255 1.000000
0.254950 -0.692677 0.298655 -0.518594 -0.852314 -0.067981 255 255 255 1.000000
-0.331067 -0.891231 -0.291497 -1.000000 0.000000 0.000000 255 255 255 1.000000
0.150060 0.751921 -0.272500 0.000000 1.000000 0.000000 255 255 255 1.000000
-0.250820 -0.589004 0.309251 0.000000 -0.228781 -0.973478 255 255 255 1.000000
-0.003068 0.891766 0.279013 0.000000 0.000000 1.000000 255 255 255 1.000000
-0.331067 -0.821077 0.102167 -1.000000 0.000000 0.000000 255 255 255 1.000000
0.297765 0.322656 -0.145675 1.000000 0.000000 0.000000 255 255 255 1.000000
0.243157 -0.142422 -0.034951 -0.729312 0.684182 0.000000 255 255 255 1.000000
-0.009902 0.565187 -0.317669 0.000000 0.000000 -1.000000 255 255 255 1.000000
-0.271844 -0.144529 -0.307201 0.000000 0.000000 1.000000 255 255 255 1.000000
-0.331067 -0.412046 -0.291690 -1.000000 0.000000 0.000000 255 255 255 1.000000
0.297765 0.299817 0.177378 -0.996613 -0.062477 -0.053470 255 255 255 1.000000
-0.327012 -0.519935 -0.317669 0.000000 0.000000 1.000000 255 255 255 1.000000
-0.120091 -0.943912 0.002149 0.000000 1.000000 0.000000 255 255 255 1.000000
-0.289195 0.649939 -0.213622 -1.000000 0.000000 0.000000 255 255 255 1.000000
-0.331067 0.853994 0.121317 -1.000000 0.000000 0.000000 255 255 255 1.000000
0.076507 -0.578275 -0.210583 0.000000 -1.000000 0.000000 255 255 255 1.000000
-0.289195 -0.161626 -0.204653 1.000000 0.000000 0.000000 255 255 255 1.000000
-0.331067 0.152454 0.241147 -1.000000 0.000000 0.000000 255 255 255 1.000000
0.338891 -0.178205 0.186321 -1.000000 0.000000 0.000000 255 255 255 1.000000
-0.331067 0.721672 -0.185337 1.000000 0.000000 0.000000 255 255 255 1.000000
-0.186289 -0.142752 0.140725 0.850794 -0.525499 0.000000 255 255 255 1.000000
-0.331067 -0.386834 -0.205248 1.000000 0.000000 0.000000 255 255 255 1.000000
-0.018091 0.160013 -0.317669 0.000000 0.000000 -1.000000 255 255 255 1.000000
-0.043713 -0.357249 0.305183 0.000000 0.000000 1.000000 244 244 244 0.500000
-0.331067 -0.407803 0.191586 1.000000 0.000000 0.000000 255 255 255 1.000000
-0.331067 -0.348103 0.123270 1.000000 0.000000 0.000000 255 255 255 1.000000
0.037025 0.751921 -0.048431 0.000000 -1.000000 0.000000 255 255 255 1.000000
-0.183454 0.465705 -0.307201 0.000000 0.000000 1.000000 255 255 255 1.000000
0.314815 0.364010 0.289481 0.000000 0.000000 1.000000 255 255 255 1.000000
-0.331067 0.055317 -0.107016 -1.000000 0.000000 0.000000 255 255 255 1.000000
0.252481 -0.045814 0.305183 0.000000 0.000000 1.000000 244 244 244 0.500000
0.297765 0.192397 -0.198096 -1.000000 0.000000 0.000000 255 255 255 1.000000
0.164193 0.919410 0.058554 0.000000 -1.000000 0.000000 255 255 255 1.000000
0.338891 -0.417500 -0.307289 -1.000000 0.000000 0.000000 255 255 255 1.000000
0.076964 -0.943912 -0.023328 0.000000 -1.000000 0.000000 255 255 255 1.000000
0.297765 -0.057887 0.094577 -1.000000 0.000000 0.000000 255 255 255 1.000000
-0.331067 0.775099 0.239825 1.000000 0.000000 0.000000 255 255 255 1.000000
0.338891 -0.447063 0.170539 1.000000 0.000000 0.000000 255 255 255 1.000000
0.320598 0.816910 0.310322 0.052818 0.000000 0.998604 255 255 255 1.000000
0.313637 0.079305 0.279013 0.000000 0.000000 1.000000 255 255 255 1.000000
-0.331067 0.035413 0.055893 1.000000 0.000000 0.000000 255 255 255 1.000000
0.163252 0.919410 -0.067321 0.000000 -1.000000 0.000000 255 255 255 1.000000
0.242116 0.919410 0.101459 0.000000 1.000000 0.000000 255 255 255 1.000000
-0.328979 -0.144963 0.279013 0.000000 0.000000 1.000000 255 255 255 1.000000
0.171691 -0.134346 0.237140 0.000000 -0.013731 0.999906 255 255 255 1.000000
-0.331067 -0.766122 -0.222751 -1.000000 0.000000 0.000000 255 255 255 1.000000
0.297765 0.443773 -0.253296 1.000000 0.000000 0.000000 255 255 255 1.000000
0.218602 0.456078 -0.317669 0.000000 0.000000 1.000000 255 255 255 1.000000
-0.289195 0.238267 -0.238661 1.000000 0.000000 0.000000 255 255 255 1.000000
-0.168732 -0.717623 -0.317669 0.000000 0.000000 1.000000 255 255 255 1.000000
-0.289195 -0.037612 0.043151 -1.000000 0.000000 0.000000 255 255 255 1.000000
-0.331067 0.683202 0.252236 -1.000000 0.000000 0.000000 255 255 255 1.000000
0.186292 0.889388 0.289481 0.000000 0.000000 -1.000000 255 255 255 1.000000
-0.213186 0.793691 0.305183 0.000000 0.000000 -1.000000 255 255 255 1.000000
0.004732 0.297719 0.101524 -0.395055 -0.918657 0.000000 255 255 255 1.000000
0.026460 0.789836 0.289481 0.000000 0.000000 -1.000000 255 255 255 1.000000
-0.184296 0.293747 -0.012761 -0.104875 0.994485 0.000000 255 255 255 1.000000
-0.258689 0.820132 0.258076 0.000000 0.000000 -1.000000 255 255 255 1.000000
-0.331067 -0.806655 0.244035 -1.000000 0.000000 0.000000 255 255 255 1.000000
0.196604 -0.592959 0.309979 0.000000 -0.136799 -0.990599 255 255 255 1.000000
-0.073414 -0.858653 0.310175 0.000000 0.340923 0.940091 255 255 255 1.000000
-0.226457 0.751921 0.125924 0.000000 1.000000 0.000000 255 255 255 1.000000
-0.331067 -0.141594 0.191766 1.000000 0.000000 0.000000 255 255 255 1.000000
0.116675 0.000122 0.305183 0.000000 0.000000 -1.000000 244 244 244 0.500000
0.338891 -0.496133 0.293992 -1.000000 0.000000 0.000000 255 255 255 1.000000
-0.015016 -0.551809 -0.317669 0.000000 0.000000 1.000000 255 255 255 1.000000
0.241100 -0.943912 0.039258 0.000000 1.000000 0.000000 255 255 255 1.000000
-0.172221 0.437823 -0.307201 0.000000 0.000000 -1.000000 255 255 255 1.000000
0.007756 0.919410 -0.295526 0.000000 -1.000000 0.000000 255 255 255 1.000000
-0.331067 -0.187663 -0.001361 1.000000 0.000000 0.000000 255 255 255 1.000000
-0.331067 0.734951 0.276583 -1.000000 0.000000 0.000000 255 255 255 1.000000
0.035807 -0.838616 0.290079 0.000000 -0.940621 -0.339459 255 255 255 1.000000
-0.091323 0.751921 -0.296229 0.000000 -1.000000 0.000000 255 255 255 1.000000
-0.268769 -0.121134 0.226672 0.000000 0.000000 -1.000000 255 255 255 1.000000
0.313637 0.158341 0.310128 0.109153 0.000000 -0.994025 255 255 255 1.000000
-0.289195 -0.417959 0.064652 -1.000000 0.000000 0.000000 255 255 255 1.000000
0.129613 0.919410 0.097023 0.000000 1.000000 0.000000 255 255 255 1.000000
-0.228247 0.294879 -0.200727 0.893969 0.448128 0.000000 255 255 255 1.000000
0.338891 0.007113 -0.132090 -1.000000 0.000000 0.000000 255 255 255 1.000000
0.297765 -0.008455 -0.167988 -1.000000 0.000000 0.000000 255 255 255 1.000000
0.097537 0.919410 0.148728 0.000000 1.000000 0.000000 255 255 255 1.000000
0.319275 -0.136991 0.279013 0.000000 0.000000 1.000000 255 255 255 1.000000
0.338891 -0.878644 0.179228 -1.000000 0.000000 0.000000 255 255 255 1.000000
-0.113394 -0.639204 -0.317669 0.000000 0.000000 -1.000000 255 255 255 1.000000
0.338891 -0.146917 -0.263276 1.000000 0.000000 0.000000 255 255 255 1.000000
-0.012916 0.739151 -0.317669 0.000000 0.000000 1.000000 255 255 255 1.000000
0.237264 0.764772 -0.317669 0.000000 0.000000 1.000000 255 255 255 1.000000
-0.202152 -0.810234 0.299891 0.000000 0.904982 0.425450 255 255 255 1.000000
-0.313636 0.038166 0.279013 0.000000 0.000000 -1.000000 255 255 255 1.000000
0.338891 0.726747 0.025095 1.000000 0.000000 0.000000 255 255 255 1.000000
0.143731 -0.578275 0.041859 0.000000 1.000000 0.000000 255 255 255 1.000000
-0.331067 0.575320 0.257505 -1.000000 0.000000 0.000000 255 255 255 1.000000
0.020196 -0.943912 0.082853 0.000000 1.000000 0.000000 255 255 255 1.000000
-0.210213 0.751921 0.053879 0.000000 1.000000 0.000000 255 255 255 1.000000
0.278127 0.296184 -0.081377 0.983815 0.179185 0.000000 255 255 255 1.000000
-0.082512 -0.943912 0.174988 0.000000 -1.000000 0.000000 255 255 255 1.000000
0.338891 -0.275495 0.079201 1.000000 0.000000 0.000000 255 255 255 1.000000
0.309774 0.390022 -0.317669 0.000000 0.000000 1.000000 255 255 255 1.000000
0.193945 0.751921 0.020248 0.000000 1.000000 0.000000 255 255 255 1.000000
0.338891 0.361555 0.161035 1.000000 0.000000 0.000000 255 255 255 1.000000
-0.331067 -0.055186 0.153287 1.000000 0.000000 0.000000 255 255 255 1.000000
0.304362 -0.311494 0.308084 0.324727 0.000000 -0.945808 255 255 255 1.000000
-0.256150 -0.943912 0.078508 0.000000 -1.000000 0.000000 255 255 255 1.000000
0.162656 -0.943912 0.036428 0.000000 -1.000000 0.000000 255 255 255 1.000000
0.297765 0.301062 -0.115737 -1.000000 0.000000 0.000000 255 255 255 1.000000
0.159783 -0.178878 -0.317669 0.000000 0.000000 -1.000000 255 255 255 1.000000
-0.289195 0.397975 0.132020 -1.000000 0.000000 0.000000 255 255 255 1.000000
-0.199607 -0.482501 0.305183 0.000000 0.000000 1.000000 244 244 244 0.500000
0.330102 -0.414948 0.308739 -0.273967 0.000000 -0.961739 255 255 255 1.000000
0.007716 0.716081 -0.317669 0.000000 0.000000 -1.000000 255 255 255 1.000000
0.172081 -0.215314 -0.307201 0.000000 0.000000 -1.000000 255 255 255 1.000000
0.045658 -0.311077 0.299949 0.000000 0.000000 -1.000000 244 244 244 0.500000
-0.289195 0.658728 0.186990 1.000000 0.000000 0.000000 255 255 255 1.000000
0.232273 0.295064 0.141524 0.932894 0.360151 0.000000 255 255 255 1.000000
-0.331067 0.729537 0.232841 -1.000000 0.000000 0.000000 255 255 255 1.000000
0.245058 0.194983 -0.307201 0.000000 0.000000 -1.000000 255 255 255 1.000000
0.017936 -0.449849 0.305183 0.000000 0.000000 -1.000000 244 244 244 0.500000
-0.331067 -0.875837 -0.316352 1.000000 0.000000 0.000000 255 255 255 1.000000
0.078932 -0.142711 -0.144891 -0.837525 -0.546399 0.000000 255 255 255 1.000000
-0.331067 0.406938 -0.291630 -1.000000 0.000000 0.000000 255 255 255 1.000000
0.067672 -0.026452 0.299949 0.000000 0.000000 -1.000000 244 244 244 0.500000
-0.289195 -0.215139 -0.139544 -1.000000 0.000000 0.000000 255 255 255 1.000000
0.301165 0.919410 -0.092614 0.000000 -1.000000 0.000000 255 255 255 1.000000
0.338891 0.205098 0.188039 1.000000 0.000000 0.000000 255 255 255 1.000000
-0.138281 0.597418 0.299949 0.000000 0.000000 -1.000000 244 244 244 0.500000
-0.011051 0.298414 -0.307201 0.003724 -0.044135 0.999019 255 255 255 1.000000
-0.084813 -0.943912 -0.259223 0.000000 1.000000 0.000000 255 255 255 1.000000
0.338891 0.313589 -0.096782 -1.000000 0.000000 0.000000 255 255 255 1.000000
0.073079 0.075668 0.299949 0.000000 0.000000 1.000000 244 244 244 0.500000
0.338891 0.664682 -0.283886 -1.000000 0.000000 0.000000 255 255 255 1.000000
0.179062 0.919410 0.037957 0.000000 1.000000 0.000000 255 255 255 1.000000
0.086424 0.382021 0.299949 0.000000 0.000000 1.000000 244 244 244 0.500000
0.297765 0.501144 -0.162911 -1.000000 0.000000 0.000000 255 255 255 1.000000
-0.152723 0.919410 0.028236 0.000000 1.000000 0.000000 255 255 255 1.000000
-0.077223 0.594847 0.305183 0.000000 0.000000 1.000000 244 244 244 0.500000
0.202626 -0.943912 -0.003947 0.000000 -1.000000 0.000000 255 255 255 1.000000
-0.054694 -0.578275 -0.306704 0.000000 -1.000000 0.000000 255 255 255 1.000000
0.012070 0.346253 0.305183 0.000000 0.000000 -1.000000 244 244 244 0.500000
-0.304139 -0.907500 0.310417 0.040824 0.032381 -0.998641 255 255 255 1.000000
0.321310 -0.693795 0.279013 0.000000 0.000000 -1.000000 255 255 255 1.000000
0.338891 -0.115369 -0.252730 1.000000 0.000000 0.000000 255 255 255 1.000000
0.338891 -0.649707 -0.266746 -1.000000 0.000000 0.000000 255 255 255 1.000000
0.338891 0.046266 -0.232292 1.000000 0.000000 0.000000 255 255 255 1.000000
0.049115 0.152846 0.299949 0.000000 0.000000 -1.000000 244 244 244 0.500000
-0.187553 0.292063 0.234863 0.000000 -0.822325 0.569018 255 255 255 1.000000
0.143179 0.676926 0.305183 0.000000 0.000000 -1.000000 244 244 244 0.500000
0.320453 0.409360 0.279013 0.000000 0.000000 1.000000 255 255 255 1.000000
0.085609 0.295466 0.193870 0.986069 0.166337 0.000000 255 255 255 1.000000
0.298749 0.497357 0.305667 0.429740 0.000000 -0.902953 255 255 255 1.000000
0.241703 0.285686 -0.317669 0.000000 0.000000 -1.000000 255 255 255 1.000000
0.338891 -0.718424 -0.237105 -1.000000 0.000000 0.000000 255 255 255 1.000000
0.135397 -0.059887 0.299949 0.000000 0.000000 -1.000000 244 244 244 0.500000
-0.331067 -0.744488 -0.167040 -1.000000 0.000000 0.000000 255 255 255 1.000000
-0.201928 -0.578275 0.210782 0.000000 -1.000000 0.000000 255 255 255 1.000000
0.204122 -0.145455 -0.067339 0.633896 -0.773418 0.000000 255 255 255 1.000000
-0.046571 -0.142909 -0.261554 -0.892356 -0.451332 0.000000 255 255 255 1.000000
-0.065600 0.762622 0.289481 0.000000 0.000000 1.000000 255 255 255 1.000000
-0.002036 -0.613543 0.289481 0.000000 0.000000 -1.000000 255 255 255 1.000000
-0.015654 0.919410 0.024508 0.000000 1.000000 0.000000 255 255 255 1.000000
-0.239997 0.766279 -0.317669 0.000000 0.000000 1.000000 255 255 255 1.000000
-0.327176 -0.809779 0.310241 -0.131976 0.010076 0.991202 255 255 255 1.000000
0.338891 -0.340748 0.254174 -1.000000 0.000000 0.000000 255 255 255 1.000000
-0.210744 -0.263561 -0.307201 0.000000 0.000000 1.000000 255 255 255 1.000000
0.257074 0.292264 -0.296733 0.058572 0.055365 -0.996747 255 255 255 1.000000
0.224853 0.340356 -0.317669 0.000000 0.000000 1.000000 255 255 255 1.000000
0.297765 -0.444708 0.276852 -1.000000 0.000000 0.000000 255 255 255 1.000000
-0.331067 0.627042 0.187869 1.000000 0.000000 0.000000 255 255 255 1.000000
0.151490 0.278101 -0.307201 0.000000 0.000000 -1.000000 255 255 255 1.000000
-0.326423 0.398669 0.279013 0.000000 0.000000 1.000000 255 255 255 1.000000
0.294085 0.801364 -0.317669 0.000000 0.000000 1.000000 255 255 255 1.000000
-0.289195 0.275693 0.183524 -1.000000 0.000000 0.000000 255 255 255 1.000000
-0.329790 -0.437347 0.305811 -0.426293 0.000000 0.904585 255 255 255 1.000000
-0.021262 -0.395887 -0.307201 0.000000 0.000000 -1.000000 255 255 255 1.000000
0.042497 0.867081 -0.317669 0.000000 0.000000 -1.000000 255 255 255 1.000000
0.125874 0.919410 0.056775 0.000000 -1.000000 0.000000 255 255 255 1.000000
0.270296 -0.044695 -0.317669 0.000000 0.000000 -1.000000 255 255 255 1.000000
-0.223414 -0.943912 0.234519 0.000000 1.000000 0.000000 255 255 255 1.000000
0.061215 0.035249 -0.317669 0.000000 0.000000 -1.000000 255 255 255 1.000000
-0.331067 0.292337 0.021938 -1.000000 0.000000 0.000000 255 255 255 1.000000
-0.289195 0.739072 0.057844 1.000000 0.000000 0.000000 255 255 255 1.000000
-0.289195 -0.159479 0.131472 -1.000000 0.000000 0.000000 255 255 255 1.000000
0.338891 0.337312 -0.064282 1.000000 0.000000 0.000000 255 255 255 1.000000
-0.175484 -0.578275 0.128513 0.000000 1.000000 0.000000 255 255 255 1.000000
-0.257837 0.395279 0.305183 0.000000 0.000000 -1.000000 244 244 244 0.500000
-0.289195 0.068282 -0.124315 1.000000 0.000000 0.000000 255 255 255 1.000000
0.278715 -0.578275 0.004464 0.000000 1.000000 0.000000 255 255 255 1.000000
-0.128750 0.919410 -0.054164 0.000000 1.000000 0.000000 255 255 255 1.000000
0.041362 0.919410 -0.194635 0.000000 -1.000000 0.000000 255 255 255 1.000000
-0.118509 -0.138614 -0.298759 0.005836 -0.997568 -0.069457 255 255 255 1.000000
0.177299 0.751921 0.166647 0.000000 1.000000 0.000000 255 255 255 1.000000
-0.146798 0.751921 0.304871 0.000000 1.000000 0.000000 255 255 255 1.000000
0.338891 -0.223003 -0.030338 -1.000000 0.000000 0.000000 255 255 255 1.000000
0.253780 -0.843051 0.310417 0.033139 -0.008994 0.999410 255 255 255 1.000000
0.329467 0.688593 0.279013 0.000000 0.000000 -1.000000 255 255 255 1.000000
0.338891 0.337049 0.222972 1.000000 0.000000 0.000000 255 255 255 1.000000
-0.076682 -0.294036 0.305183 0.000000 0.000000 1.000000 244 244 244 0.500000
0.297765 -0.222641 0.269420 1.000000 0.000000 0.000000 255 255 255 1.000000
0.297765 0.715762 -0.023105 1.000000 0.000000 0.000000 255 255 255 1.000000
0.338891 -0.285307 0.053820 1.000000 0.000000 0.000000 255 255 255 1.000000
0.058336 -0.143769 -0.246468 -0.999265 -0.038338 0.000000 255 255 255 1.000000
0.219659 -0.572093 -0.317669 0.000000 0.000000 1.000000 255 255 255 1.000000
-0.289195 0.451271 -0.285136 1.000000 0.000000 0.000000 255 255 255 1.000000
0.338891 -0.152542 -0.194550 -1.000000 0.000000 0.000000 255 255 255 1.000000
0.103348 -0.529080 0.299949 0.000000 0.000000 1.000000 244 244 244 0.500000
-0.033661 0.919410 0.246083 0.000000 -1.000000 0.000000 255 255 255 1.000000
-0.182924 0.212052 -0.307201 0.000000 0.000000 1.000000 255 255 255 1.000000
0.338891 -0.543470 0.131140 -1.000000 0.000000 0.000000 255 255 255 1.000000
-0.331067 -0.585309 -0.201991 -1.000000 0.000000 0.000000 255 255 255 1.000000
-0.331067 0.835000 -0.290411 1.000000 0.000000 0.000000 255 255 255 1.000000
0.106369 0.607523 0.305183 0.000000 0.000000 -1.000000 244 244 244 0.500000
0.338891 -0.013984 0.011513 1.000000 0.000000 0.000000 255 255 255 1.000000
0.316412 0.286653 0.279013 0.000000 0.000000 -1.000000 255 255 255 1.000000
0.221162 -0.163323 0.305183 0.000000 0.000000 -1.000000 244 244 244 0.500000
0.297765 0.276759 0.220276 1.000000 0.000000 0.000000 255 255 255 1.000000
-0.065255 0.378511 -0.317669 0.000000 0.000000 -1.000000 255 255 255 1.000000
-0.285195 0.905811 -0.317669 0.000000 0.000000 1.000000 255 255 255 1.000000
-0.320599 0.285090 0.286787 1.000000 0.000000 0.000000 255 255 255 1.000000
-0.002863 -0.806834 0.279013 0.000000 0.000000 1.000000 255 255 255 1.000000
0.118200 -0.728662 -0.317669 0.000000 0.000000 -1.000000 255 255 255 1.000000
0.117022 -0.143433 0.154376 -0.979797 0.199994 0.000000 255 255 255 1.000000
-0.182520 0.751921 -0.214924 0.000000 1.000000 0.000000 255 255 255 1.000000
-0.283883 0.739901 -0.317669 0.000000 0.000000 1.000000 255 255 255 1.000000
0.224318 -0.943912 -0.224697 0.000000 1.000000 0.000000 255 255 255 1.000000
-0.331067 -0.623724 0.262481 1.000000 0.000000 0.000000 255 255 255 1.000000
-0.331067 0.551000 0.023953 -1.000000 0.000000 0.000000 255 255 255 1.000000
-0.226162 -0.149083 -0.299307 0.008313 0.998193 -0.059509 255 255 255 1.000000
0.338891 0.473859 -0.185277 -1.000000 0.000000 0.000000 255 255 255 1.000000
-0.289195 -0.554829 -0.137303 1.000000 0.000000 0.000000 255 255 255 1.000000
0.297765 0.428851 0.176504 1.000000 0.000000 0.000000 255 255 255 1.000000
-0.289195 0.598429 -0.188219 -1.000000 0.000000 0.000000 255 255 255 1.000000
0.338891 0.564289 0.296965 1.000000 0.000000 0.000000 255 255 255 1.000000
-0.195165 -0.580459 -0.317669 0.000000 0.000000 1.000000 255 255 255 1.000000
0.232178 0.751921 0.056017 0.000000 -1.000000 0.000000 255 255 255 1.000000
-0.331067 0.814310 -0.065851 -1.000000 0.000000 0.000000 255 255 255 1.000000
0.058742 0.296141 0.237115 0.000000 0.093377 -0.995631 255 255 255 1.000000
0.094335 0.521047 0.305183 0.000000 0.000000 1.000000 244 244 244 0.500000
-0.331067 0.243431 -0.161065 1.000000 0.000000 0.000000 255 255 255 1.000000
0.338891 0.158993 0.026830 -1.000000 0.000000 0.000000 255 255 255 1.000000
0.034404 0.751921 -0.097327 0.000000 1.000000 0.000000 255 255 255 1.000000
0.297765 -0.052303 -0.257641 -1.000000 0.000000 0.000000 255 255 255 1.000000
0.318240 -0.943912 -0.290296 0.000000 -1.000000 0.000000 255 255 255 1.000000
0.338891 -0.585229 -0.035849 -1.000000 0.000000 0.000000 255 255 255 1.000000
-0.191657 0.563389 0.305183 0.000000 0.000000 1.000000 244 244 244 0.500000
0.018252 -0.872275 -0.317669 0.000000 0.000000 -1.000000 255 255 255 1.000000
-0.100160 -0.282904 0.299949 0.000000 0.000000 -1.000000 244 244 244 0.500000
0.132620 0.652607 -0.307201 0.000000 0.000000 1.000000 255 255 255 1.000000
-0.233501 0.701480 0.299949 0.000000 0.000000 1.000000 244 244 244 0.500000
0.302548 0.662722 0.289481 0.000000 0.000000 -1.000000 255 255 255 1.000000
-0.331067 0.280325 0.118383 1.000000 0.000000 0.000000 255 255 255 1.000000
-0.234409 -0.367130 -0.307201 0.000000 0.000000 -1.000000 255 255 255 1.000000
-0.319620 -0.597391 0.309402 0.212124 0.000000 -0.977243 255 255 255 1.000000
0.238609 -0.943912 0.225798 0.000000 -1.000000 0.000000 255 255 255 1.000000
0.297765 0.316552 0.096791 -1.000000 0.000000 0.000000 255 255 255 1.000000
0.194664 0.919410 -0.278368 0.000000 1.000000 0.000000 255 255 255 1.000000
0.190439 0.294972 0.037609 -0.914558 -0.404454 0.000000 255 255 255 1.000000
0.064810 -0.144660 0.140544 0.920351 0.391094 0.000000 255 255 255 1.000000
-0.061071 0.352354 -0.307201 0.000000 0.000000 1.000000 255 255 255 1.000000
0.338891 -0.530076 -0.163899 1.000000 0.000000 0.000000 255 255 255 1.000000
-0.289195 -0.321988 0.012901 1.000000 0.000000 0.000000 255 255 255 1.000000
0.338891 0.640161 -0.088485 -1.000000 0.000000 0.000000 255 255 255 1.000000
0.093052 0.679493 0.305183 0.000000 0.000000 1.000000 244 244 244 0.500000
-0.289195 -0.073358 -0.020838 -1.000000 0.000000 0.000000 255 255 255 1.000000
-0.289195 -0.089606 0.240231 -1.000000 0.000000 0.000000 255 255 255 1.000000
-0.267107 0.521136 0.305183 0.000000 0.000000 1.000000 244 244 244 0.500000
-0.192590 0.818008 -0.317669 0.000000 0.000000 -1.000000 255 255 255 1.000000
0.297765 -0.028227 -0.128393 -1.000000 0.000000 0.000000 255 255 255 1.000000
0.338891 -0.169509 -0.056757 1.000000 0.000000 0.000000 255 255 255 1.000000
-0.289195 0.629767 -0.177413 1.000000 0.000000 0.000000 255 255 255 1.000000
-0.104510 -0.883384 -0.317669 0.000000 0.000000 -1.000000 255 255 255 1.000000
-0.289195 0.309830 -0.062769 1.000000 0.000000 0.000000 255 255 255 1.000000
0.297765 0.110391 0.103409 1.000000 0.000000 0.000000 255 255 255 1.000000
0.236526 -0.134349 0.299949 0.000000 0.000000 -1.000000 244 244 244 0.500000
0.289264 0.442921 -0.317669 0.000000 0.000000 -1.000000 255 255 255 1.000000
-0.077467 0.123387 -0.307201 0.000000 0.000000 1.000000 255 255 255 1.000000
0.297765 0.713665 -0.218364 -1.000000 0.000000 0.000000 255 255 255 1.000000
-0.289195 -0.497265 -0.074067 -1.000000 0.000000 0.000000 255 255 255 1.000000
0.338891 -0.916286 0.087368 1.000000 0.000000 0.000000 255 255 255 1.000000
0.158018 -0.727904 -0.317669 0.000000 0.000000 -1.000000 255 255 255 1.000000
0.062157 0.774863 0.258076 0.000000 0.000000 1.000000 255 255 255 1.000000
0.297765 0.479827 0.237625 1.000000 0.000000 0.000000 255 255 255 1.000000
-0.196282 -0.426761 0.305183 0.000000 0.000000 1.000000 244 244 244 0.500000
-0.193275 0.137718 -0.317669 0.000000 0.000000 -1.000000 255 255 255 1.000000
-0.331067 -0.700133 0.275617 -1.000000 0.000000 0.000000 255 255 255 1.000000
-0.289195 0.725326 0.261963 1.000000 0.000000 0.000000 255 255 255 1.000000
-0.331067 -0.874988 0.158625 -1.000000 0.000000 0.000000 255 255 255 1.000000
0.338891 -0.112911 -0.169500 -1.000000 0.000000 0.000000 255 255 255 1.000000
-0.193278 -0.920729 0.279013 0.000000 0.000000 -1.000000 255 255 255 1.000000
0.172126 -0.756646 0.279013 0.000000 0.000000 -1.000000 255 255 255 1.000000
0.221664 0.843454 0.258076 0.000000 0.000000 1.000000 255 255 255 1.000000
-0.331067 0.514367 0.139219 -1.000000 0.000000 0.000000 255 255 255 1.000000
-0.131310 0.919410 0.113981 0.000000 1.000000 0.000000 255 255 255 1.000000
0.338891 0.080708 0.128517 1.000000 0.000000 0.000000 255 255 255 1.000000
-0.289195 -0.456611 -0.024114 -1.000000 0.000000 0.000000 255 255 255 1.000000
-0.313078 0.255735 0.279013 0.000000 0.000000 -1.000000 255 255 255 1.000000
-0.120576 -0.484534 0.305183 0.000000 0.000000 1.000000 244 244 244 0.500000
-0.223543 0.751921 -0.104114 0.000000 1.000000 0.000000 255 255 255 1.000000
-0.187220 0.846422 0.305183 0.000000 0.000000 -1.000000 255 255 255 1.000000
0.267238 -0.888840 0.303167 0.000000 0.682964 0.730452 255 255 255 1.000000
-0.039825 0.795253 0.258076 0.000000 0.000000 1.000000 255 255 255 1.000000
-0.331067 0.123720 -0.185930 -1.000000 0.000000 0.000000 255 255 255 1.000000
-0.234846 -0.139862 0.216204 0.055396 0.062183 -0.996526 255 255 255 1.000000
0.036467 -0.266660 -0.317669 0.000000 0.000000 1.000000 255 255 255 1.000000
-0.331067 0.834175 0.210527 1.000000 0.000000 0.000000 255 255 255 1.000000
-0.289195 -0.135373 -0.217844 -1.000000 0.000000 0.000000 255 255 255 1.000000
0.297765 0.160654 0.220871 -1.000000 0.000000 0.000000 255 255 255 1.000000
0.228384 -0.364581 -0.307201 0.000000 0.000000 -1.000000 255 255 255 1.000000
0.297765 0.001057 -0.048101 -1.000000 0.000000 0.000000 255 255 255 1.000000
0.338891 -0.890269 -0.111238 -1.000000 0.000000 0.000000 255 255 255 1.000000
-0.289195 -0.237712 0.252354 1.000000 0.000000 0.000000 255 255 255 1.000000
-0.138296 0.314974 0.299949 0.000000 0.000000 -1.000000 244 244 244 0.500000
-0.304132 0.143044 0.309917 -0.148243 0.000000 -0.988951 255 255 255 1.000000
0.045891 -0.059498 0.305183 0.000000 0.000000 1.000000 244 244 244 0.500000
0.081313 -0.943912 -0.253397 0.000000 1.000000 0.000000 255 255 255 1.000000
0.297765 -0.492644 -0.127740 -1.000000 0.000000 0.000000 255 255 255 1.000000
-0.141882 -0.351381 -0.317669 0.000000 0.000000 1.000000 255 255 255 1.000000
0.047035 -0.812765 0.289481 0.000000 0.000000 1.000000 255 255 255 1.000000
0.074753 -0.308822 -0.317669 0.000000 0.000000 -1.000000 255 255 255 1.000000
0.338891 0.582049 -0.166709 -1.000000 0.000000 0.000000 255 255 255 1.000000
-0.289195 -0.407470 0.040271 -1.000000 0.000000 0.000000 255 255 255 1.000000
0.325471 0.551194 -0.317669 0.000000 0.000000 1.000000 255 255 255 1.000000
0.297765 0.626141 0.098081 -1.000000 0.000000 0.000000 255 255 255 1.000000
0.338891 -0.390649 -0.110254 -1.000000 0.000000 0.000000 255 255 255 1.000000
0.289986 0.032255 -0.317669 0.000000 0.000000 1.000000 255 255 255 1.000000
0.148767 0.297008 -0.134637 -0.817651 0.575715 0.000000 255 255 255 1.000000
0.300324 -0.943912 -0.144603 0.000000 -1.000000 0.000000 255 255 255 1.000000
0.338891 0.644562 -0.243093 -1.000000 0.000000 0.000000 255 255 255 1.000000
-0.272468 -0.578275 -0.079092 0.000000 -1.000000 0.000000 255 255 255 1.000000
-0.331067 0.083696 -0.152706 -1.000000 0.000000 0.000000 255 255 255 1.000000
0.338891 0.526721 0.026897 -1.000000 0.000000 0.000000 255 255 255 1.000000
-0.179606 -0.578275 0.071515 0.000000 -1.000000 0.000000 255 255 255 1.000000
0.131417 -0.924786 -0.317669 0.000000 0.000000 1.000000 255 255 255 1.000000
-0.331067 0.392144 0.023868 1.000000 0.000000 0.000000 255 255 255 1.000000
-0.331067 -0.785225 -0.145356 1.000000 0.000000 0.000000 255 255 255 1.000000
0.003277 0.068304 -0.307201 0.000000 0.000000 1.000000 255 255 255 1.000000
-0.289195 0.355505 0.038625 -1.000000 0.000000 0.000000 255 255 255 1.000000
0.338891 -0.250730 -0.020416 1.000000 0.000000 0.000000 255 255 255 1.000000
-0.133227 -0.517986 -0.317669 0.000000 0.000000 1.000000 255 255 255 1.000000
0.139625 0.628573 -0.317669 0.000000 0.000000 1.000000 255 255 255 1.000000
-0.260702 0.919410 0.212130 0.000000 1.000000 0.000000 255 255 255 1.000000
0.022076 -0.727571 0.289481 0.000000 0.000000 1.000000 255 255 255 1.000000
0.338891 -0.439753 0.057371 1.000000 0.000000 0.000000 255 255 255 1.000000
0.338891 -0.398073 0.275493 1.000000 0.000000 0.000000 255 255 255 1.000000
0.288555 -0.578275 0.042873 0.000000 -1.000000 0.000000 255 255 255 1.000000
0.321153 -0.515654 0.279013 0.000000 0.000000 -1.000000 255 255 255 1.000000
-0.227939 -0.943912 -0.259322 0.000000 -1.000000 0.000000 255 255 255 1.000000
